x,y,z,r,p,y
2.58727,-1.134,0.0735582,78.1129,179.783,-178.496
2.56172,-1.20569,0.0757566,78.0897,179.766,-178.567
2.55624,-1.22027,0.0782808,78.1086,179.879,-178.605
2.55404,-1.22503,0.0807413,78.1369,179.884,-178.589
2.55405,-1.22744,0.0782798,78.102,179.897,-178.602
2.55054,-1.23324,0.0753828,78.1564,179.825,-178.578
2.55122,-1.22845,0.0791195,78.1342,179.862,-178.531
2.55419,-1.21984,0.0781255,78.1399,179.804,-178.527
2.55582,-1.21223,0.0739475,78.2159,179.652,-179.052
2.55418,-1.20916,0.0758569,78.0297,179.736,-178.648
2.55515,-1.20782,0.0776182,78.0742,179.768,-178.621
2.55607,-1.20962,0.0763763,78.1037,179.781,-178.623
2.55538,-1.21214,0.0770643,78.1073,179.797,-178.6
2.55632,-1.21497,0.0782143,78.0874,179.811,-178.562
2.5569,-1.20769,0.0735452,78.2499,179.688,-179.091
2.55388,-1.21459,0.0757577,78.091,179.848,-178.636
2.55439,-1.21807,0.0784914,78.0673,179.829,-178.606
2.55638,-1.21034,0.0747381,78.2004,179.67,-178.985
2.55541,-1.21269,0.0747095,78.0962,179.779,-178.59
2.55383,-1.21588,0.0752696,78.098,179.788,-178.623
2.55428,-1.21988,0.0783999,78.055,179.816,-178.638
2.55615,-1.21966,0.0791803,78.0905,179.789,-178.526
2.55333,-1.22083,0.0780957,78.0858,179.792,-178.688
2.55173,-1.2208,0.0785885,78.091,179.831,-178.624
2.55175,-1.21945,0.0777992,78.1017,179.773,-178.635
2.55455,-1.21049,0.0728496,78.2144,179.618,-179.103
2.55433,-1.21425,0.0744876,78.1351,179.79,-178.639
2.55449,-1.21793,0.0786298,78.1196,179.877,-178.536
2.55541,-1.21844,0.0773894,78.127,179.764,-178.57
2.55338,-1.21997,0.0790626,78.1027,179.812,-178.57
2.55257,-1.22198,0.0776162,78.0709,179.778,-178.678
2.55473,-1.21696,0.0728553,78.248,179.633,-179.081
2.55254,-1.21677,0.0754836,78.0458,179.767,-178.635
2.55378,-1.2194,0.0770576,78.1041,179.779,-178.572
2.556,-1.213,0.0722207,78.2387,179.593,-179.003
2.55697,-1.2155,0.076099,78.0915,179.805,-178.594
2.5565,-1.20522,0.0713259,78.2314,179.582,-179.104
2.55315,-1.21264,0.0741032,78.07,179.707,-178.707
2.55308,-1.21503,0.0748841,78.0876,179.754,-178.522
2.55378,-1.20914,0.0730718,78.2071,179.619,-179.108
2.55284,-1.21671,0.0760897,78.1156,179.758,-178.625
2.55315,-1.21869,0.0774418,78.1132,179.744,-178.606
2.55428,-1.2222,0.0786475,78.1152,179.879,-178.609
2.55602,-1.22538,0.0789079,78.1535,179.828,-178.563
2.55888,-1.2174,0.0740715,78.2935,179.627,-179.042
2.55652,-1.22055,0.0763105,78.1356,179.766,-178.608
2.55572,-1.21147,0.0718027,78.234,179.605,-179.08
2.55375,-1.2168,0.0752657,78.0959,179.772,-178.631
2.55393,-1.2187,0.0762947,78.1356,179.84,-178.602
2.55348,-1.21903,0.0767099,78.0675,179.8,-178.6
2.55336,-1.2184,0.0784578,78.1246,179.838,-178.625
2.55199,-1.22158,0.0789982,78.1371,179.843,-178.56
2.55606,-1.22211,0.0785334,78.1125,179.787,-178.522
2.55609,-1.22133,0.0783687,78.1421,179.843,-178.557
2.5562,-1.2162,0.0749956,78.2113,179.66,-179.019
2.55432,-1.21437,0.0742221,78.0991,179.798,-178.641
2.55397,-1.21724,0.0769732,78.0388,179.777,-178.623
2.555,-1.21029,0.0728311,78.2826,179.618,-179.114
2.55419,-1.21396,0.0745381,78.0766,179.787,-178.621
2.55447,-1.2193,0.0766166,78.1202,179.742,-178.615
2.55479,-1.21966,0.0757645,78.1138,179.763,-178.532
2.55396,-1.22187,0.0765505,78.1553,179.814,-178.608
2.55556,-1.21632,0.0736859,78.241,179.657,-179.047
2.55445,-1.21717,0.0751371,78.1103,179.767,-178.651
2.55221,-1.2187,0.0769175,78.1113,179.813,-178.646
2.55376,-1.21236,0.0731279,78.193,179.59,-179.079
2.55386,-1.21476,0.0747829,78.1183,179.788,-178.58
2.55346,-1.2182,0.0760175,78.0818,179.829,-178.704
2.5539,-1.22053,0.0775541,78.0699,179.815,-178.561
2.55319,-1.22016,0.0784583,78.0802,179.769,-178.579
2.55153,-1.22095,0.0783404,78.0869,179.872,-178.639
2.55244,-1.21459,0.0734713,78.2088,179.677,-179.033
2.553,-1.21662,0.0756259,78.1207,179.807,-178.657
2.55534,-1.21704,0.0761508,78.0758,179.814,-178.517
2.55284,-1.22061,0.0760917,78.1036,179.817,-178.637
2.55342,-1.2232,0.0769067,78.151,179.798,-178.667
2.55517,-1.21732,0.0730492,78.2737,179.615,-179.033
2.55249,-1.22021,0.0740391,78.1049,179.79,-178.62
2.55257,-1.2215,0.0776181,78.0604,179.832,-178.592
2.55144,-1.22114,0.0773028,78.0874,179.777,-178.685
2.55426,-1.22356,0.0789779,78.1032,179.832,-178.539
2.55442,-1.22256,0.0780052,78.15,179.789,-178.613
2.55624,-1.21346,0.0749206,78.2603,179.653,-179.053
2.55705,-1.21512,0.0760993,78.1335,179.75,-178.634
2.55615,-1.21476,0.0762942,78.1471,179.816,-178.605
2.55832,-1.20835,0.0710814,78.2422,179.597,-179.036
2.55488,-1.21259,0.0742786,78.092,179.737,-178.617
2.55394,-1.21468,0.0760795,78.1049,179.813,-178.631
2.55406,-1.2182,0.0776091,78.086,179.816,-178.533
2.55463,-1.21429,0.0733395,78.2299,179.657,-179.015
2.55526,-1.21726,0.0766259,78.1627,179.788,-178.563
2.55491,-1.2179,0.0761043,78.1153,179.795,-178.586
2.55541,-1.22021,0.0772903,78.1049,179.795,-178.603
2.55724,-1.21284,0.0749304,78.2044,179.672,-178.983
2.55265,-1.21403,0.0753525,78.0844,179.763,-178.723
2.55137,-1.21758,0.0768193,78.1013,179.81,-178.61
2.55262,-1.21969,0.0776597,78.1081,179.738,-178.6
2.55228,-1.22333,0.0773861,78.1078,179.838,-178.611
2.55169,-1.22441,0.0779586,78.1447,179.792,-178.668
2.55262,-1.22585,0.0783125,78.1573,179.745,-178.653
2.55374,-1.22251,0.0784983,78.0966,179.838,-178.614
2.55476,-1.22083,0.078749,78.1211,179.858,-178.591
2.55288,-1.21881,0.0780872,78.1519,179.821,-178.644
2.55376,-1.21192,0.074056,78.2199,179.641,-179.119
2.55487,-1.21506,0.0739932,78.1577,179.819,-178.637
2.55507,-1.21704,0.0746772,78.1291,179.765,-178.678
2.55416,-1.21802,0.0757126,78.0878,179.797,-178.566
2.5542,-1.22046,0.0782695,78.1198,179.826,-178.596
2.55617,-1.21435,0.0744415,78.2477,179.663,-179.083
2.55461,-1.21434,0.076426,78.1389,179.752,-178.721
2.55353,-1.21898,0.0777033,78.0754,179.801,-178.606
2.55372,-1.21972,0.0768159,78.1114,179.808,-178.638
2.55174,-1.22148,0.0776535,78.1573,179.794,-178.637
2.55089,-1.22299,0.0777807,78.1231,179.786,-178.597
2.55271,-1.21649,0.0741214,78.1966,179.673,-179.012
2.55589,-1.21661,0.074222,78.1114,179.769,-178.616
2.55581,-1.21916,0.0759272,78.1521,179.797,-178.561
2.5571,-1.21291,0.0730862,78.2069,179.644,-179.026
2.55576,-1.21324,0.076504,78.1128,179.806,-178.664
2.55374,-1.21418,0.0765312,78.0924,179.787,-178.587
2.55146,-1.21724,0.0775516,78.0861,179.8,-178.597
2.55335,-1.21867,0.0777354,78.083,179.784,-178.563
2.55635,-1.21396,0.0737694,78.2284,179.666,-179.065
2.55527,-1.21905,0.0763494,78.1161,179.842,-178.648
2.5544,-1.22463,0.0791443,78.1506,179.868,-178.603
2.5557,-1.22479,0.0781995,78.1171,179.874,-178.506
2.55678,-1.21791,0.073864,78.3066,179.667,-179.054
2.55336,-1.21998,0.0742347,78.145,179.734,-178.619
2.55267,-1.21033,0.06981,78.2008,179.572,-179.106
2.55269,-1.21096,0.0747549,78.0886,179.769,-178.65
2.55329,-1.215,0.0760552,78.0887,179.753,-178.647
2.55385,-1.22091,0.0774816,78.1293,179.817,-178.53
2.5564,-1.22287,0.0779735,78.1036,179.826,-178.513
2.55532,-1.22402,0.0775868,78.131,179.774,-178.618
2.5542,-1.22697,0.0787485,78.1431,179.81,-178.546
2.55614,-1.22361,0.078207,78.1225,179.829,-178.564
2.55322,-1.2228,0.0802997,78.073,179.83,-178.594
2.55453,-1.21399,0.0754918,78.21,179.657,-179.076
2.55169,-1.21834,0.0775107,78.0675,179.825,-178.556
2.55381,-1.21662,0.0761055,78.1345,179.809,-178.555
2.55369,-1.21661,0.0761305,78.1302,179.793,-178.626
2.55556,-1.21134,0.0712742,78.2328,179.662,-179.006
2.55624,-1.21451,0.0722978,78.111,179.72,-178.597
2.5554,-1.21586,0.0742318,78.077,179.81,-178.58
2.55448,-1.21959,0.0763547,78.1345,179.783,-178.668
2.55623,-1.21398,0.0730501,78.2376,179.649,-179.068
2.55441,-1.21636,0.0742837,78.1253,179.707,-178.638
2.55302,-1.21927,0.0772126,78.0686,179.787,-178.618
2.55207,-1.22201,0.0781811,78.1338,179.882,-178.639
2.55303,-1.22318,0.0798103,78.1094,179.833,-178.501
2.55141,-1.22138,0.0800615,78.0604,179.806,-178.624
2.55347,-1.21314,0.0761596,78.1966,179.69,-179.029
2.55405,-1.21411,0.0756787,78.0917,179.737,-178.635
2.55433,-1.2146,0.0761882,78.0761,179.75,-178.609
2.55717,-1.20826,0.0713781,78.2424,179.62,-179.04
2.55678,-1.21478,0.0754295,78.1467,179.779,-178.593
2.55774,-1.21776,0.0767542,78.0757,179.757,-178.524
2.55578,-1.21949,0.07798,78.1478,179.813,-178.568
2.55577,-1.22182,0.0787386,78.185,179.823,-178.59
2.55541,-1.21673,0.0742411,78.2536,179.67,-179.05
2.55126,-1.21711,0.0758691,78.099,179.851,-178.63
2.55235,-1.21981,0.0770341,78.1234,179.807,-178.624
2.5532,-1.21954,0.0775838,78.1389,179.777,-178.577
2.55444,-1.2188,0.0781582,78.0734,179.805,-178.568
2.55513,-1.21234,0.0732876,78.2428,179.632,-179.031
2.55593,-1.21345,0.0746573,78.1533,179.721,-178.668
2.5544,-1.21671,0.0775719,78.0916,179.828,-178.6
2.55425,-1.2184,0.0770456,78.1172,179.85,-178.593
2.5516,-1.22239,0.0776891,78.0923,179.829,-178.636
2.55159,-1.22157,0.0778709,78.1378,179.761,-178.65
2.55288,-1.21423,0.0731653,78.1678,179.658,-179.031
2.55384,-1.2163,0.0761643,78.1205,179.826,-178.604
2.55322,-1.21762,0.0775828,78.0858,179.794,-178.607
2.55508,-1.21935,0.0777644,78.1038,179.741,-178.525
2.55479,-1.22111,0.0764411,78.1101,179.821,-178.602
2.55606,-1.22092,0.0745793,78.1509,179.751,-178.619
2.55583,-1.22101,0.0746141,78.1404,179.795,-178.606
2.55378,-1.22273,0.0768656,78.0566,179.832,-178.575
2.55288,-1.22034,0.0772396,78.0401,179.823,-178.606
2.55472,-1.21311,0.0741164,78.2649,179.651,-179.062
2.55523,-1.21563,0.0756729,78.1147,179.758,-178.661
2.55613,-1.2166,0.0753394,78.0634,179.774,-178.6
2.55542,-1.21989,0.077371,78.0584,179.794,-178.586
2.5559,-1.21289,0.0736062,78.2015,179.643,-179.081
2.55387,-1.21603,0.0767954,78.1071,179.817,-178.602
2.5531,-1.21791,0.0777852,78.1112,179.736,-178.682
2.55332,-1.21845,0.0787531,78.0818,179.79,-178.564
2.55505,-1.21914,0.0797041,78.122,179.777,-178.558
2.55543,-1.22041,0.0788833,78.1099,179.851,-178.598
2.55379,-1.22108,0.0772364,78.0943,179.752,-178.6
2.55408,-1.21308,0.0725633,78.2123,179.675,-179.052
2.55189,-1.21559,0.07386,78.0807,179.791,-178.666
2.55264,-1.21661,0.0751802,78.1329,179.798,-178.615
2.55385,-1.21031,0.0724005,78.1971,179.642,-179.042
2.55538,-1.21544,0.0762858,78.1052,179.776,-178.614
2.55618,-1.21753,0.0767697,78.0601,179.845,-178.553
2.5553,-1.22026,0.0766054,78.1197,179.815,-178.609
2.55666,-1.21637,0.0731025,78.2492,179.643,-179.077
2.55701,-1.21697,0.0744765,78.105,179.835,-178.623
2.55606,-1.21771,0.076476,78.1438,179.831,-178.564
2.55519,-1.21924,0.0786777,78.0693,179.786,-178.563
2.55343,-1.22116,0.0798281,78.1484,179.852,-178.595
2.5519,-1.22288,0.0794855,78.114,179.834,-178.565
2.55357,-1.21433,0.0751748,78.2391,179.669,-179.039
2.55308,-1.2166,0.0768163,78.1292,179.775,-178.59
2.55423,-1.21852,0.0772896,78.1142,179.791,-178.558
2.55225,-1.22006,0.0758017,78.0766,179.768,-178.606
2.5526,-1.2228,0.0771038,78.155,179.786,-178.598
2.55384,-1.22188,0.0761904,78.0871,179.8,-178.603
2.55327,-1.22182,0.0754145,78.15,179.846,-178.575
2.55315,-1.22123,0.075951,78.1798,179.764,-178.617
2.55296,-1.22049,0.0769779,78.1382,179.802,-178.559
2.55237,-1.22064,0.0766148,78.1057,179.772,-178.64
2.55415,-1.21429,0.0728649,78.2948,179.636,-179.04
2.55386,-1.21597,0.0758022,78.076,179.782,-178.603
2.55373,-1.21629,0.0773384,78.1143,179.808,-178.599
2.55203,-1.21719,0.0774963,78.0295,179.791,-178.632
2.5517,-1.21949,0.077695,78.1028,179.805,-178.618
2.55402,-1.21913,0.077219,78.0932,179.761,-178.6
2.55654,-1.21252,0.0730254,78.2357,179.648,-179.005
2.55597,-1.21864,0.0760971,78.1073,179.861,-178.572
2.55725,-1.21501,0.0714218,78.2776,179.642,-179.094
2.55837,-1.21874,0.0749342,78.1015,179.83,-178.494
2.55609,-1.2204,0.076039,78.0919,179.864,-178.533
2.55227,-1.22413,0.0762592,78.1438,179.799,-178.658
2.55226,-1.22355,0.0775975,78.0826,179.772,-178.644
2.55108,-1.22131,0.0782284,78.0769,179.834,-178.59
2.54946,-1.2216,0.0779525,78.1033,179.77,-178.652
2.54997,-1.2209,0.0785138,78.1003,179.811,-178.576
2.55216,-1.21558,0.0741763,78.2438,179.703,-179.1
2.55496,-1.21997,0.0764659,78.1077,179.798,-178.557
2.55758,-1.21424,0.0726718,78.2715,179.685,-179.097
2.55648,-1.21618,0.0742703,78.1279,179.726,-178.622
2.55633,-1.21933,0.076902,78.0965,179.854,-178.611
2.5542,-1.22179,0.0775385,78.1539,179.797,-178.614
2.55559,-1.21644,0.0731196,78.2606,179.617,-179.051
2.55442,-1.21863,0.0745288,78.1222,179.835,-178.649
2.55422,-1.21938,0.0759441,78.1357,179.8,-178.648
2.55288,-1.22295,0.0793749,78.0966,179.816,-178.586
2.5543,-1.22476,0.08007,78.1208,179.799,-178.546
2.55528,-1.22349,0.0796726,78.1119,179.852,-178.572
2.55672,-1.21719,0.0762956,78.2592,179.685,-179.093
2.5566,-1.2187,0.0774579,78.1248,179.812,-178.582
2.55521,-1.21994,0.0781326,78.1328,179.84,-178.558
2.55446,-1.22035,0.0784843,78.1086,179.808,-178.642
2.55138,-1.22119,0.0777796,78.091,179.788,-178.645
2.55176,-1.22311,0.0769863,78.1101,179.772,-178.579
2.55242,-1.22117,0.077364,78.1139,179.803,-178.573
2.55308,-1.22232,0.0773497,78.1135,179.799,-178.577
2.55287,-1.22302,0.0779737,78.1211,179.832,-178.54
2.55257,-1.22282,0.0776382,78.0831,179.817,-178.567
2.55237,-1.22346,0.078028,78.1139,179.784,-178.572
2.55446,-1.21726,0.0733694,78.2111,179.644,-178.996
2.55594,-1.21642,0.0746476,78.1152,179.72,-178.561
2.55349,-1.2194,0.0772277,78.0897,179.843,-178.536
2.55169,-1.22122,0.0762779,78.0952,179.788,-178.654
2.55286,-1.2152,0.0719491,78.2244,179.598,-179.078
2.55485,-1.21864,0.0758767,78.0764,179.818,-178.626
2.55445,-1.22145,0.0777284,78.1157,179.846,-178.592
2.55575,-1.223,0.0797111,78.1072,179.795,-178.606
2.55776,-1.21765,0.0764079,78.2202,179.636,-178.954
2.5551,-1.21843,0.0753351,78.1049,179.839,-178.572
2.55634,-1.21942,0.0760638,78.1174,179.748,-178.619
2.55591,-1.22168,0.0771735,78.1194,179.857,-178.559
2.55598,-1.2141,0.0734512,78.2558,179.637,-179.089
2.55424,-1.21682,0.0744337,78.1358,179.813,-178.659
2.55479,-1.21679,0.0765067,78.0972,179.79,-178.571
2.55519,-1.2191,0.078169,78.1292,179.808,-178.52
2.55252,-1.21981,0.0770349,78.1096,179.77,-178.6
2.55168,-1.22096,0.0768375,78.127,179.81,-178.602
2.5508,-1.22214,0.0781636,78.0857,179.836,-178.572
2.55126,-1.21674,0.0737893,78.2606,179.688,-179.106
2.55065,-1.21519,0.0738705,78.125,179.702,-178.712
2.5506,-1.21574,0.0765799,78.1072,179.824,-178.695
2.55346,-1.21733,0.0783847,78.1214,179.772,-178.597
2.55374,-1.22044,0.0782687,78.1228,179.807,-178.627
2.55296,-1.22086,0.0793267,78.1346,179.842,-178.659
2.55509,-1.21382,0.0741724,78.2011,179.639,-179.082
2.55552,-1.2146,0.0734142,78.0782,179.808,-178.595
2.55631,-1.22031,0.074222,78.147,179.776,-178.614
2.55618,-1.2209,0.0765997,78.1617,179.791,-178.613
2.55626,-1.21752,0.0723844,78.2648,179.622,-179.08
2.55656,-1.2176,0.0740177,78.0977,179.785,-178.639
2.55804,-1.21102,0.071651,78.2419,179.601,-179.048
2.55535,-1.2152,0.0758338,78.1026,179.781,-178.593
2.55311,-1.21866,0.0780326,78.0705,179.862,-178.592
2.5518,-1.22216,0.0786972,78.0921,179.817,-178.636
2.55272,-1.22092,0.0807167,78.0952,179.756,-178.541
2.5536,-1.21878,0.0807672,78.0742,179.775,-178.526
2.55272,-1.22059,0.0802479,78.1479,179.798,-178.631
2.55499,-1.21429,0.0765134,78.2309,179.677,-179.062
2.55673,-1.21635,0.0777521,78.1516,179.788,-178.621
2.55581,-1.21805,0.0787022,78.1059,179.842,-178.539
2.55329,-1.21595,0.0769508,78.0581,179.775,-178.645
2.55316,-1.21066,0.0727557,78.2122,179.639,-179.066
2.55174,-1.21312,0.0735991,78.1196,179.767,-178.651
2.55381,-1.20735,0.0699643,78.262,179.555,-179.112
2.55402,-1.21166,0.0735601,78.1229,179.77,-178.639
2.5563,-1.20797,0.0707155,78.253,179.649,-179.085
2.55513,-1.21524,0.0751844,78.145,179.784,-178.67
2.5564,-1.21927,0.0772278,78.0988,179.795,-178.611
2.558,-1.22302,0.0788327,78.1411,179.848,-178.563
2.55626,-1.22437,0.0793075,78.1158,179.823,-178.505
2.5523,-1.22478,0.0785968,78.1102,179.812,-178.583
2.55415,-1.21815,0.0744646,78.2312,179.696,-179.082
2.55278,-1.21668,0.074812,78.1061,179.826,-178.708
2.55501,-1.21782,0.076375,78.1106,179.863,-178.577
2.55387,-1.21956,0.078288,78.1289,179.806,-178.579
2.55449,-1.22156,0.0790092,78.1079,179.812,-178.552
2.55323,-1.22108,0.0767517,78.0789,179.807,-178.646
2.55339,-1.2137,0.0717664,78.21,179.648,-179.052
2.5543,-1.21764,0.0757082,78.1011,179.823,-178.622
2.55546,-1.21608,0.0749862,78.0794,179.754,-178.596
2.55381,-1.21545,0.0764633,78.1067,179.838,-178.593
2.55197,-1.21762,0.0777836,78.0757,179.745,-178.598
2.55215,-1.21277,0.0741483,78.2446,179.658,-179.122
2.55402,-1.21536,0.0757831,78.1288,179.78,-178.622
2.55453,-1.21942,0.0765639,78.1274,179.789,-178.671
2.55696,-1.21533,0.0727424,78.2381,179.631,-179.086
2.55625,-1.21748,0.0761951,78.1186,179.798,-178.658
2.55533,-1.22004,0.0787069,78.0764,179.807,-178.538
2.55523,-1.22361,0.0791996,78.1543,179.856,-178.64
2.55403,-1.22287,0.0786526,78.1356,179.812,-178.654
2.55442,-1.22336,0.0784758,78.0887,179.842,-178.563
2.55566,-1.21586,0.0737892,78.2635,179.624,-179.078
2.55582,-1.218,0.0766905,78.0921,179.87,-178.556
2.55544,-1.22085,0.0768644,78.1358,179.886,-178.558
2.55516,-1.21487,0.0722787,78.2434,179.622,-179.118
2.55297,-1.21741,0.0761939,78.0695,179.8,-178.613
2.55315,-1.22018,0.079061,78.0719,179.78,-178.548
2.55488,-1.21284,0.0760735,78.1805,179.664,-179.089
2.55294,-1.21314,0.0769521,78.0864,179.773,-178.69
2.55508,-1.20921,0.0723156,78.211,179.614,-179.075
2.55867,-1.21248,0.0734704,78.1131,179.77,-178.533
2.55828,-1.21719,0.0743386,78.0996,179.81,-178.589
2.55588,-1.22128,0.0772548,78.0965,179.805,-178.606
2.55743,-1.21759,0.0732627,78.2622,179.648,-179.054
2.55508,-1.22042,0.0745581,78.1171,179.793,-178.605
2.55323,-1.22139,0.0771787,78.1044,179.774,-178.627
2.55218,-1.22106,0.0790296,78.1178,179.808,-178.614
2.55267,-1.22184,0.0786837,78.1333,179.783,-178.641
2.55048,-1.22088,0.079227,78.0474,179.818,-178.6
2.55328,-1.21282,0.0746697,78.228,179.642,-179.055
2.55436,-1.2165,0.0741853,78.1109,179.816,-178.602
2.55707,-1.21557,0.0772183,78.1054,179.841,-178.542
2.55699,-1.21864,0.0769259,78.0977,179.793,-178.615
2.55512,-1.21969,0.0778176,78.0981,179.819,-178.55
2.55526,-1.22056,0.0786309,78.084,179.857,-178.552
2.5553,-1.21462,0.0739207,78.1993,179.663,-179.05
2.55615,-1.21694,0.0763676,78.1,179.786,-178.58
2.55634,-1.21854,0.0767282,78.114,179.804,-178.532
2.55246,-1.22002,0.077757,78.0623,179.874,-178.593
2.55421,-1.21434,0.0736333,78.1985,179.662,-179.017
2.55342,-1.21682,0.0769098,78.1138,179.799,-178.587
2.55369,-1.21715,0.0775505,78.1009,179.828,-178.587
2.55493,-1.21102,0.0739358,78.2361,179.677,-179.113
2.55331,-1.2161,0.0768125,78.1163,179.855,-178.676
2.55235,-1.21804,0.0774532,78.0522,179.794,-178.638
2.55124,-1.21898,0.0776877,78.0494,179.809,-178.535
2.55139,-1.21963,0.0779678,78.0867,179.779,-178.638
2.55127,-1.22207,0.0772455,78.1339,179.812,-178.668
2.55383,-1.21665,0.0745383,78.2423,179.641,-179.107
2.55317,-1.21793,0.0758809,78.1082,179.803,-178.68
2.55435,-1.22123,0.0782067,78.1107,179.818,-178.601
2.55528,-1.22019,0.0788171,78.0819,179.774,-178.568
2.55616,-1.21856,0.0780814,78.1108,179.83,-178.589
2.55483,-1.21922,0.0789472,78.1474,179.842,-178.542
2.55524,-1.21616,0.0789482,78.1174,179.726,-178.537
2.55299,-1.21798,0.0776624,78.1217,179.793,-178.657
2.55637,-1.21195,0.0727918,78.2676,179.648,-179.048
2.55694,-1.21587,0.076398,78.1323,179.81,-178.557
2.55607,-1.21794,0.0774033,78.1039,179.802,-178.61
2.55458,-1.22263,0.0779214,78.1099,179.864,-178.568
2.55445,-1.22401,0.0779794,78.1046,179.841,-178.565
2.55533,-1.2238,0.0778405,78.0921,179.836,-178.499
2.55268,-1.22376,0.0782392,78.118,179.854,-178.541
2.55445,-1.21573,0.0735594,78.2414,179.665,-179.086
2.55544,-1.21569,0.0758288,78.1105,179.829,-178.576
2.55739,-1.20778,0.0723288,78.2118,179.607,-178.992
2.55522,-1.21148,0.0750791,78.0892,179.779,-178.599
2.5554,-1.21604,0.0769406,78.1395,179.793,-178.646
2.5557,-1.21784,0.0779713,78.1153,179.733,-178.599
2.55374,-1.22006,0.078061,78.0919,179.795,-178.623
2.55528,-1.22266,0.0795469,78.1129,179.85,-178.568
2.55606,-1.22228,0.0788778,78.0977,179.792,-178.601
2.55505,-1.22132,0.0778233,78.1284,179.832,-178.591
2.5557,-1.21238,0.0733078,78.2619,179.672,-179.068
2.55434,-1.21287,0.0744541,78.1096,179.798,-178.612
2.5555,-1.21539,0.0764909,78.0989,179.802,-178.546
2.55673,-1.21042,0.0716751,78.2035,179.637,-179.055
2.55436,-1.21391,0.0747678,78.1267,179.779,-178.648
2.55299,-1.21717,0.077471,78.0664,179.794,-178.593
2.55484,-1.21908,0.0795073,78.1025,179.854,-178.539
2.55518,-1.22256,0.0785477,78.1201,179.788,-178.576
2.55453,-1.226,0.0791609,78.1254,179.81,-178.568
2.55508,-1.22037,0.0746766,78.2559,179.695,-179.034
2.55506,-1.22001,0.0758352,78.1285,179.821,-178.623
2.55564,-1.2221,0.0762919,78.1247,179.801,-178.555
2.55581,-1.22309,0.0773783,78.1303,179.764,-178.521
2.55653,-1.21618,0.0729822,78.2196,179.654,-179.03
2.55326,-1.21652,0.0749721,78.1229,179.775,-178.644
2.55282,-1.21764,0.0760274,78.1284,179.788,-178.617
2.55336,-1.21153,0.0718086,78.2444,179.638,-179.105
2.55359,-1.21324,0.0745095,78.0985,179.82,-178.605
2.55573,-1.208,0.0708582,78.2827,179.6,-179.06
2.55628,-1.21297,0.0741109,78.1086,179.797,-178.592
2.55694,-1.21644,0.0751943,78.1306,179.793,-178.581
2.55725,-1.21777,0.0772866,78.1206,179.783,-178.604
2.5542,-1.22262,0.0792898,78.0999,179.836,-178.552
2.55494,-1.21847,0.0746689,78.3116,179.717,-179.059
2.55499,-1.219,0.0749549,78.1171,179.798,-178.612
2.55583,-1.22004,0.077884,78.1369,179.834,-178.583
2.55612,-1.21325,0.0732449,78.2659,179.649,-179.158
2.55567,-1.21513,0.073091,78.1493,179.734,-178.616
2.55298,-1.21791,0.0748766,78.1424,179.763,-178.667
2.55179,-1.22021,0.0787733,78.1076,179.846,-178.577
2.55359,-1.21447,0.0751927,78.27,179.654,-179.087
2.55446,-1.21658,0.075995,78.0901,179.798,-178.598
2.55468,-1.21925,0.0780561,78.114,179.79,-178.59
2.55565,-1.2143,0.0740538,78.2448,179.66,-179.076
2.55571,-1.21526,0.0745399,78.1084,179.815,-178.58
2.55796,-1.21073,0.0704042,78.2581,179.59,-179.084
2.55623,-1.2147,0.0752368,78.104,179.788,-178.606
2.55697,-1.21599,0.0753684,78.0829,179.767,-178.584
2.55673,-1.20977,0.0720062,78.2119,179.606,-179.037
2.55626,-1.21551,0.0754707,78.1191,179.767,-178.6
2.55659,-1.21156,0.071166,78.2926,179.597,-179.101
2.55536,-1.2149,0.0767718,78.08,179.831,-178.524
2.55482,-1.21734,0.0780942,78.0913,179.793,-178.611
2.55405,-1.22296,0.0787054,78.0872,179.775,-178.626
2.55452,-1.21769,0.0744983,78.2394,179.624,-179.118
2.55371,-1.21689,0.0749379,78.1157,179.772,-178.684
2.55312,-1.22184,0.075177,78.1399,179.843,-178.581
2.55346,-1.22303,0.0759393,78.1182,179.844,-178.535
2.55486,-1.22232,0.0771734,78.0791,179.864,-178.514
2.55262,-1.22291,0.0778455,78.1436,179.852,-178.622
2.55231,-1.22459,0.0788123,78.0781,179.787,-178.6
2.55458,-1.22316,0.0773656,78.0972,179.838,-178.539
2.5564,-1.22314,0.0772641,78.136,179.866,-178.573
2.55687,-1.2235,0.078874,78.0823,179.827,-178.557
2.55534,-1.22302,0.0784939,78.1105,179.842,-178.511
2.55226,-1.22009,0.0787105,78.0434,179.836,-178.577
2.55099,-1.22031,0.0775677,78.1003,179.831,-178.634
2.55185,-1.21288,0.0723582,78.2167,179.694,-179.015
2.55475,-1.21584,0.073681,78.1026,179.811,-178.586
2.55344,-1.218,0.0763295,78.1002,179.811,-178.62
2.55387,-1.22232,0.0773645,78.1013,179.789,-178.621
2.5542,-1.21782,0.0738968,78.2201,179.666,-178.994
2.5551,-1.22174,0.0749626,78.1169,179.803,-178.615
2.55612,-1.22332,0.0760612,78.154,179.785,-178.551
2.55717,-1.22293,0.076535,78.0943,179.873,-178.481
2.5582,-1.21712,0.0736954,78.2572,179.692,-179.015
2.55727,-1.21813,0.0749947,78.1293,179.767,-178.606
2.55478,-1.21966,0.0769739,78.1169,179.841,-178.599
2.55505,-1.22055,0.0789201,78.0805,179.825,-178.53
2.55559,-1.21605,0.0752011,78.2163,179.698,-179.063
2.55498,-1.21666,0.0746287,78.1129,179.801,-178.641
2.55328,-1.21758,0.0746904,78.0665,179.795,-178.56
2.55315,-1.21848,0.0757971,78.0226,179.866,-178.602
2.55363,-1.22075,0.0777088,78.0807,179.892,-178.468
2.55547,-1.21447,0.073921,78.238,179.674,-179.041
2.55504,-1.21657,0.0748728,78.1079,179.849,-178.631
2.55516,-1.21807,0.0750088,78.1028,179.832,-178.561
2.55588,-1.21243,0.072007,78.2361,179.687,-179.041
2.55557,-1.21547,0.0749767,78.1095,179.759,-178.608
2.55482,-1.21985,0.076672,78.1116,179.816,-178.453
2.55411,-1.22126,0.0797575,78.1133,179.91,-178.548
2.55643,-1.21631,0.0760734,78.249,179.698,-179.071
2.55397,-1.2182,0.0760292,78.1117,179.821,-178.56
2.55455,-1.22117,0.0750304,78.1347,179.833,-178.596
2.55521,-1.22138,0.0772021,78.0871,179.795,-178.573
2.55577,-1.21445,0.072962,78.2186,179.629,-179.023
2.5541,-1.2186,0.0751248,78.0935,179.754,-178.582
2.55221,-1.21983,0.0748272,78.0706,179.865,-178.597
2.55175,-1.21922,0.0759678,78.0713,179.798,-178.6
2.55465,-1.21843,0.0785657,78.1485,179.777,-178.522
2.55654,-1.21955,0.0793466,78.1493,179.908,-178.522
2.55843,-1.22082,0.0783708,78.1382,179.855,-178.521
2.56039,-1.21325,0.072947,78.2879,179.657,-179.01
2.55571,-1.21606,0.0720534,78.0858,179.792,-178.565
2.55486,-1.21672,0.0743599,78.0851,179.832,-178.577
2.55509,-1.21054,0.0712642,78.2673,179.633,-179.091
2.55537,-1.21598,0.0750693,78.1274,179.748,-178.591
2.55621,-1.22066,0.076522,78.1577,179.838,-178.528
2.5572,-1.21609,0.0728113,78.2923,179.634,-178.999
2.55579,-1.22053,0.0766661,78.1012,179.841,-178.553
2.55547,-1.22319,0.0773609,78.0967,179.875,-178.552
2.5544,-1.22234,0.0769458,78.0876,179.776,-178.62
2.5539,-1.22053,0.0780628,78.1231,179.821,-178.562
2.55625,-1.21375,0.0743871,78.2403,179.61,-178.965
2.55375,-1.21687,0.0770372,78.136,179.776,-178.626
2.55405,-1.21933,0.0791078,78.1547,179.853,-178.605
2.55474,-1.21997,0.0791116,78.0965,179.799,-178.601
2.55462,-1.22224,0.0783985,78.1007,179.882,-178.559
2.55468,-1.22457,0.0776583,78.0933,179.816,-178.579
2.55465,-1.22444,0.0789315,78.1171,179.825,-178.568
2.55712,-1.21878,0.0745602,78.2669,179.623,-178.976
2.55522,-1.21901,0.0744152,78.1353,179.784,-178.57
2.55371,-1.22,0.0763053,78.0798,179.804,-178.58
2.5546,-1.22081,0.0769362,78.1295,179.807,-178.604
2.55382,-1.22032,0.0766821,78.1202,179.845,-178.603
2.55389,-1.21328,0.0738494,78.2222,179.633,-179.093
2.5531,-1.21758,0.0754876,78.1143,179.798,-178.588
2.55236,-1.22039,0.075744,78.1279,179.784,-178.569
2.55403,-1.22175,0.07739,78.1021,179.879,-178.563
2.55529,-1.22081,0.0794607,78.1395,179.829,-178.594
2.55702,-1.22163,0.0798086,78.136,179.858,-178.568
2.55699,-1.22248,0.0788203,78.1353,179.875,-178.501
2.55657,-1.22364,0.07818,78.1672,179.894,-178.533
2.55793,-1.21659,0.0726144,78.2486,179.693,-178.99
2.55846,-1.21723,0.0736796,78.1225,179.787,-178.591
2.55935,-1.20828,0.0702611,78.2266,179.606,-179.066
2.55564,-1.21447,0.0746497,78.1191,179.779,-178.629
2.55528,-1.2175,0.0777237,78.1336,179.813,-178.566
2.55452,-1.21867,0.078782,78.1125,179.839,-178.577
2.55417,-1.22026,0.0791501,78.1023,179.797,-178.605
2.55765,-1.21478,0.0756568,78.2096,179.659,-178.954
2.55755,-1.21726,0.0764497,78.1012,179.737,-178.611
2.55469,-1.21815,0.0781718,78.0676,179.826,-178.511
2.55377,-1.22185,0.0787365,78.1052,179.921,-178.551
2.5534,-1.22304,0.0787779,78.1131,179.866,-178.591
2.55486,-1.22338,0.0784449,78.1102,179.86,-178.566
2.55352,-1.22325,0.0796141,78.1248,179.826,-178.558
2.55117,-1.22579,0.0783895,78.094,179.882,-178.584
2.555,-1.22415,0.0772722,78.1127,179.78,-178.578
2.5573,-1.21512,0.0723866,78.2733,179.628,-179.079
2.55839,-1.21849,0.0752473,78.1766,179.814,-178.564
2.56118,-1.20881,0.0708518,78.2753,179.599,-179.05
2.55672,-1.21359,0.0750403,78.1116,179.795,-178.576
2.55498,-1.21717,0.0760274,78.1087,179.786,-178.666
2.5537,-1.21782,0.0774523,78.1329,179.827,-178.683
2.55595,-1.21887,0.0770718,78.0792,179.919,-178.497
2.55707,-1.21327,0.0733765,78.2577,179.615,-179.104
2.55465,-1.21941,0.0748357,78.1325,179.783,-178.593
2.55568,-1.2142,0.0709505,78.2407,179.633,-179.061
2.55497,-1.21608,0.0736143,78.0931,179.721,-178.603
2.55433,-1.21946,0.0778079,78.0884,179.866,-178.568
2.55536,-1.21444,0.0739012,78.256,179.695,-179.057
2.55163,-1.21578,0.0758713,78.0812,179.778,-178.626
2.55297,-1.2205,0.0779762,78.0576,179.877,-178.571
2.55341,-1.22222,0.0779722,78.082,179.829,-178.589
2.55442,-1.22334,0.0781686,78.1048,179.822,-178.558
2.55385,-1.22313,0.0784829,78.1132,179.868,-178.567
2.55382,-1.22506,0.0797288,78.1016,179.901,-178.541
2.55533,-1.21674,0.075402,78.2167,179.638,-179.084
2.55381,-1.2163,0.0758303,78.0777,179.767,-178.619
2.55438,-1.21809,0.0766152,78.1183,179.826,-178.606
2.55584,-1.22033,0.0770809,78.1742,179.78,-178.507
2.55775,-1.22148,0.0781682,78.1012,179.848,-178.49
2.55825,-1.22411,0.0780586,78.1518,179.832,-178.55
2.55708,-1.22519,0.0782173,78.1344,179.847,-178.569
2.55871,-1.21544,0.0746709,78.272,179.722,-178.973
2.55512,-1.21537,0.0745975,78.0878,179.824,-178.629
2.55315,-1.21666,0.0742792,78.1104,179.763,-178.661
2.55338,-1.21903,0.0769446,78.0724,179.839,-178.466
2.55478,-1.21216,0.073947,78.1962,179.62,-178.969
2.55339,-1.21917,0.0757417,78.1174,179.837,-178.57
2.55403,-1.22429,0.0767356,78.0744,179.845,-178.495
2.5558,-1.22325,0.0778669,78.1247,179.819,-178.519
2.55852,-1.21466,0.074322,78.2272,179.681,-179.061
2.55873,-1.2192,0.0745113,78.114,179.838,-178.613
2.55658,-1.22133,0.0775147,78.0621,179.792,-178.545
2.55575,-1.2213,0.0792698,78.1121,179.877,-178.481
2.55419,-1.22265,0.0791563,78.1105,179.862,-178.569
2.55484,-1.22307,0.078142,78.0971,179.828,-178.562
2.55554,-1.22277,0.0782078,78.0924,179.829,-178.485
2.55466,-1.22023,0.0760183,78.1451,179.85,-178.623
2.55718,-1.2104,0.0711006,78.2882,179.628,-179.041
2.55778,-1.2105,0.0732513,78.1007,179.708,-178.593
2.55785,-1.2127,0.0742607,78.0959,179.769,-178.485
2.55835,-1.20665,0.0706339,78.2239,179.62,-179.042
2.55668,-1.2125,0.0752869,78.1219,179.813,-178.594
2.55456,-1.21719,0.0762115,78.1318,179.799,-178.592
2.5538,-1.22326,0.0781409,78.0787,179.81,-178.55
2.55503,-1.2271,0.0784071,78.1001,179.858,-178.58
2.5569,-1.2203,0.0735366,78.2485,179.635,-179.037
2.55321,-1.22134,0.0760032,78.1112,179.827,-178.613
2.5537,-1.22188,0.0756907,78.1344,179.81,-178.606
2.55468,-1.22097,0.0771545,78.0823,179.834,-178.543
2.55615,-1.21391,0.0735665,78.257,179.625,-179.083
2.55506,-1.21301,0.0748884,78.1487,179.764,-178.611
2.55559,-1.21645,0.0766058,78.1489,179.828,-178.545
2.55633,-1.21048,0.0729069,78.2154,179.62,-179.05
2.55305,-1.21344,0.0735466,78.086,179.8,-178.589
2.55583,-1.20711,0.0693959,78.1571,179.567,-179.017
2.55707,-1.21248,0.073468,78.1514,179.755,-178.607
2.55803,-1.2152,0.0769149,78.1082,179.762,-178.506
2.55842,-1.211,0.0724999,78.2274,179.686,-179.015
2.55759,-1.21581,0.0753855,78.1384,179.824,-178.606
2.55838,-1.21981,0.0774041,78.105,179.798,-178.509
2.55803,-1.2143,0.0733749,78.2739,179.679,-179.014
2.55615,-1.21831,0.0751654,78.1547,179.756,-178.635
2.55495,-1.22061,0.0764119,78.1069,179.821,-178.545
2.55363,-1.22194,0.0777566,78.0554,179.82,-178.497
2.55252,-1.22254,0.0780164,78.0701,179.878,-178.629
2.5514,-1.221,0.0779234,78.1428,179.789,-178.61
2.5528,-1.22171,0.0774844,78.1052,179.837,-178.547
2.55267,-1.21471,0.0727564,78.2082,179.687,-179.076
2.55356,-1.21594,0.073326,78.1137,179.777,-178.622
2.55443,-1.21746,0.0756416,78.0928,179.819,-178.57
2.55389,-1.21694,0.0760384,78.113,179.824,-178.654
2.55513,-1.21257,0.0728151,78.179,179.647,-179.038
2.55686,-1.21377,0.0751525,78.0993,179.774,-178.619
2.55845,-1.21768,0.0752589,78.0834,179.772,-178.558
2.55972,-1.21201,0.072185,78.2588,179.713,-179.06
2.55776,-1.21353,0.0748885,78.1221,179.8,-178.616
2.55824,-1.21655,0.0790006,78.1157,179.817,-178.535
2.55746,-1.21955,0.0795964,78.1087,179.903,-178.491
2.55575,-1.22026,0.0789507,78.1313,179.83,-178.646
2.55637,-1.2159,0.0737151,78.2026,179.64,-179.014
2.55462,-1.21776,0.0747108,78.0869,179.809,-178.591
2.55511,-1.21919,0.0747521,78.0808,179.863,-178.539
2.55644,-1.21985,0.0772609,78.0754,179.858,-178.529
2.55599,-1.22072,0.0798458,78.1229,179.884,-178.513
2.55757,-1.21462,0.0751691,78.2215,179.705,-179.021
2.555,-1.21438,0.0770716,78.0937,179.813,-178.645
2.55669,-1.21787,0.0768195,78.1158,179.851,-178.518
2.55751,-1.21902,0.075633,78.1228,179.845,-178.509
2.55737,-1.22038,0.0771884,78.1311,179.838,-178.513
2.5554,-1.22144,0.0764153,78.13,179.828,-178.612
2.55477,-1.22068,0.0769206,78.0815,179.816,-178.581
2.55437,-1.22016,0.0764309,78.073,179.806,-178.577
2.55403,-1.21419,0.0733111,78.2366,179.643,-179.037
2.55459,-1.22007,0.0761713,78.1175,179.866,-178.562
2.55542,-1.22125,0.0772806,78.1181,179.808,-178.524
2.5569,-1.22071,0.0759941,78.1013,179.781,-178.531
2.55807,-1.21087,0.0720695,78.2198,179.666,-179.019
2.55617,-1.21367,0.0744464,78.1353,179.795,-178.568
2.55444,-1.20885,0.071296,78.2059,179.576,-179.019
2.5533,-1.21464,0.073417,78.125,179.767,-178.56
2.55361,-1.21804,0.0768924,78.0691,179.827,-178.528
2.5543,-1.21847,0.0773232,78.1426,179.839,-178.606
2.55467,-1.22061,0.0791504,78.0846,179.845,-178.546
2.55524,-1.21552,0.0752914,78.2337,179.662,-179.068
2.55492,-1.21649,0.0758568,78.1083,179.735,-178.603
2.55704,-1.20976,0.0720938,78.2153,179.632,-179.079
2.5567,-1.21258,0.076135,78.1273,179.85,-178.588
2.55479,-1.21739,0.0794456,78.0969,179.836,-178.566
2.55498,-1.21752,0.0789216,78.0831,179.784