x,y,z,r,p,y
-1.26053,2.52367,0.0553851,75.8574,1.17829,0.14596
-1.262,2.52138,0.057509,75.9042,1.19347,0.251333
-1.25931,2.51701,0.058415,75.8975,1.14784,0.215941
-1.25858,2.5143,0.0566707,75.9198,1.14936,0.101344
-1.25529,2.51205,0.0573567,75.8793,1.10735,0.0293358
-1.2491,2.50907,0.052969,75.7923,1.24565,0.151247
-1.24361,2.50584,0.0523199,75.8188,1.18021,0.113076
-1.2402,2.50328,0.0515507,75.7912,1.15422,0.0701073
-1.23731,2.50286,0.0476001,75.8135,1.24034,0.0470311
-1.23399,2.50291,0.0454036,75.7816,1.20343,0.0174036
-1.23254,2.50146,0.0435986,75.7815,1.24095,-0.0483599
-1.23176,2.49936,0.044589,75.7669,1.17734,-0.0477187
-1.23186,2.49914,0.0436681,75.7383,1.23299,-0.00556071
-1.23292,2.49711,0.0442344,75.7383,1.27358,0.047086
-1.23321,2.49725,0.0441662,75.7798,1.22213,-0.0297647
-1.23367,2.49858,0.0436962,75.785,1.26604,-0.0476549
-1.2367,2.50182,0.0444843,75.8043,1.27163,0.0562203
-1.23753,2.50262,0.0459945,75.8122,1.23145,0.0652286
-1.23767,2.49998,0.0427264,75.7558,1.30567,0.0246766
-1.23847,2.50117,0.0446784,75.8357,1.22204,0.0663911
-1.23842,2.50022,0.0443897,75.784,1.26602,0.105592
-1.2373,2.49994,0.0441475,75.8123,1.19607,-0.0446024
-1.23497,2.50091,0.049291,75.7368,1.15922,0.0292302
-1.23512,2.50191,0.0488069,75.7753,1.22052,0.0812574
-1.23698,2.50232,0.0465187,75.8219,1.25482,0.0536164
-1.23838,2.50209,0.0457794,75.8032,1.23972,0.0288384
-1.23798,2.49988,0.0455667,75.7642,1.23375,0.0842306
-1.23994,2.49783,0.046222,75.781,1.25265,0.0933842
-1.24173,2.49711,0.0459842,75.859,1.21055,0.0430267
-1.24119,2.49875,0.0483458,75.8141,1.19681,0.107334
-1.24061,2.49921,0.0477927,75.7863,1.23447,0.13157
-1.24335,2.50077,0.0460832,75.8887,1.19945,-0.0134883
-1.2423,2.49977,0.0461098,75.8307,1.20807,0.0109428
-1.24132,2.50153,0.0467206,75.7935,1.22755,0.115656
-1.23931,2.50143,0.0483447,75.7918,1.15888,0.0280636
-1.23866,2.50163,0.046732,75.7736,1.25269,0.051725
-1.2379,2.50153,0.0449554,75.7814,1.26731,-0.00414024
-1.24007,2.50217,0.0463938,75.8458,1.24359,0.0551559
-1.24021,2.49916,0.0477179,75.8587,1.24921,0.0174781
-1.24592,2.47865,0.0465701,76.2776,1.44819,-0.0865781
-1.25469,2.43256,0.0499644,76.7087,1.23212,0.0318992
-1.2612,2.38314,0.0537007,77.2531,1.1089,0.0226278
-1.27123,2.34376,0.0485806,77.4837,1.22372,-0.0666814
-1.2695,2.31167,0.0467245,77.8579,1.05515,0.129727
-1.27794,2.26674,0.0372747,78.2418,0.597998,0.21941
-1.29833,2.235,0.0350338,78.5157,0.450912,-0.247807
-1.30236,2.20177,0.0336887,78.7464,0.352412,-0.00154723
-1.31583,2.17062,0.0361688,79.0949,0.157883,-0.0318708
-1.32524,2.14612,0.0397645,79.4392,0.246999,-0.113789
-1.3267,2.11837,0.0418802,79.7001,0.24677,0.0496966
-1.33036,2.08149,0.0434368,79.9722,0.306114,0.239018
-1.33852,2.03931,0.0478349,80.312,0.0273508,0.0281995
-1.34869,1.99994,0.048037,80.5891,-0.0521776,0.000792423
-1.3555,1.95281,0.0493328,80.7958,-0.453565,-0.0780249
-1.35638,1.90933,0.0497123,81.1431,-0.609173,0.149192
-1.36642,1.86958,0.0452756,81.4338,-0.791865,0.0975537
-1.3727,1.83228,0.0432781,81.663,-1.13672,0.0264825
-1.37599,1.80598,0.042106,81.889,-1.28131,0.0833355
-1.37621,1.78191,0.0414619,82.0781,-1.4177,0.179954
-1.38296,1.75595,0.0380407,82.3975,-1.56185,0.106638
-1.38856,1.72529,0.0391114,82.7206,-1.84364,0.0160252
-1.38854,1.69087,0.0385985,82.9538,-1.93904,0.0683373
-1.3866,1.66384,0.0387812,83.3613,-1.93979,0.210315
-1.39422,1.63601,0.0418963,83.5829,-1.97032,0.152144
-1.39943,1.61426,0.0446463,83.8494,-1.90711,0.0468119
-1.41446,1.59916,0.0436676,83.9785,-1.46124,-0.325257
-1.3943,1.5734,0.0443368,83.9316,-1.27275,0.325941
-1.40657,1.54746,0.0417239,83.9899,-1.11677,0.0603752
-1.40715,1.51836,0.0391721,84.1892,-1.06832,0.370163
-1.41721,1.49079,0.0359735,84.2851,-0.913879,-0.0251867
-1.41385,1.4658,0.0383196,84.2182,-1.03345,0.440337
-1.41113,1.44206,0.0382075,84.4226,-0.900546,0.54015
-1.42141,1.41983,0.0368062,84.3676,-0.915966,0.340202
-1.41854,1.39343,0.0347712,84.5159,-0.903604,0.248171
-1.42198,1.3692,0.0324789,84.66,-0.913018,0.133522
-1.42559,1.34617,0.0294868,84.7613,-0.892329,0.0722623
-1.42595,1.32796,0.0298408,84.8636,-0.798212,0.215111
-1.43127,1.31279,0.0306747,84.9312,-0.722807,0.108054
-1.43648,1.30232,0.0318915,85.0912,-0.632059,-0.0304239
-1.43696,1.28673,0.0312628,85.0513,-0.490402,-0.128516
-1.43541,1.26759,0.0311455,85.1461,-0.37917,-0.0445602
-1.43782,1.25124,0.0307918,85.242,-0.313297,-0.0312255
-1.44139,1.23832,0.0304796,85.0637,-0.205471,-0.0552578
-1.44287,1.22094,0.0309714,84.8248,-0.153783,-0.140427
-1.44602,1.2046,0.0317131,84.6675,-0.0206909,-0.0197919
-1.44709,1.18879,0.0314151,84.7429,0.0395484,0.00913422
-1.44852,1.17398,0.0314319,84.9255,0.169866,-0.0079446
-1.45077,1.15385,0.0319593,85.1611,0.278977,-0.122241
-1.45335,1.13456,0.0301048,85.4182,0.427247,-0.00381362
-1.45329,1.11593,0.0303781,85.5297,0.544373,-0.155433
-1.45373,1.09651,0.0284579,85.6386,0.685608,-0.00703342
-1.45563,1.07958,0.026749,85.7542,0.736682,0.0584711
-1.45432,1.07845,0.0258214,85.7471,0.756743,-0.247385
-1.45381,1.08546,0.0230905,85.6862,0.809165,-0.00145496
-1.45412,1.08774,0.023175,85.6775,0.718761,0.0336418
-1.45309,1.08955,0.0221114,85.6769,0.820595,0.0643855
-1.4532,1.09192,0.0222297,85.6742,0.710211,-0.0148437
-1.45345,1.09447,0.0227738,85.6823,0.753702,-0.0230639
-1.45282,1.09633,0.0252419,85.6936,0.717909,-0.223051
-1.45559,1.09828,0.0254171,85.7053,0.730138,0.0373143
-1.45642,1.09807,0.0262314,85.6915,0.725278,0.00113485
-1.45851,1.09934,0.026679,85.7487,0.684857,0.0569438
-1.4563,1.09941,0.0287921,85.6903,0.655358,-0.211903
-1.4578,1.10093,0.0273689,85.7088,0.715433,0.0644629
-1.45959,1.09908,0.0262023,85.739,0.739062,0.123232
-1.45988,1.09933,0.0277883,85.7016,0.663237,0.127385
-1.46038,1.09895,0.0256311,85.7194,0.744106,0.0856799
-1.45806,1.09583,0.0269127,85.7061,0.707076,-0.152734
-1.45739,1.09565,0.0265058,85.7151,0.716626,-3.82664e-05
-1.45758,1.09504,0.0256532,85.7162,0.747257,0.0843946
-1.45811,1.09523,0.0250117,85.6978,0.754518,0.0160891
-1.45827,1.09663,0.0238653,85.7469,0.759027,0.0822917
-1.45749,1.09572,0.0232601,85.7033,0.718186,-0.00177362
-1.45765,1.09682,0.0219527,85.7284,0.769577,0.0584497
-1.45621,1.09499,0.0240992,85.737,0.724014,-0.226509
-1.45699,1.09483,0.0252292,85.6877,0.720992,-0.0152535
-1.45739,1.09214,0.0232869,85.6698,0.880648,0.0981165
-1.45688,1.09281,0.0252417,85.7388,0.709892,-0.234084
-1.45781,1.09301,0.0260268,85.7046,0.719451,0.0629254
-1.45488,1.09126,0.0275582,85.6807,0.666785,-0.24194
-1.45576,1.09392,0.0265673,85.7323,0.71733,0.0598218
-1.45755,1.09548,0.0256154,85.6931,0.753184,0.0382876
-1.45868,1.09684,0.025867,85.7577,0.730154,-0.0232046
-1.45958,1.09853,0.0254908,85.7546,0.774145,0.0284453
-1.45975,1.09802,0.0249611,85.7208,0.720413,0.0194405
-1.46134,1.09762,0.0246008,85.7342,0.728351,0.0385855
-1.45919,1.09401,0.0249609,85.7142,0.763879,-0.173097
-1.45881,1.09352,0.0241765,85.7317,0.784512,0.074794
-1.46009,1.09343,0.0241781,85.7531,0.78028,0.0125733
-1.46028,1.09379,0.0239501,85.7233,0.736417,0.0906997
-1.4597,1.09293,0.0229585,85.7159,0.789938,0.0690416
-1.45838,1.09412,0.0256514,85.7177,0.686853,-0.187777
-1.45882,1.0932,0.0247802,85.7164,0.753278,0.0269034
-1.45775,1.09465,0.0252567,85.697,0.736854,0.0256984
-1.4574,1.0981,0.0261615,85.6894,0.672505,0.00721801
-1.45757,1.09777,0.0265941,85.7066,0.720685,0.0844108
-1.45829,1.09641,0.0260677,85.7107,0.748319,0.0420544
-1.45663,1.09427,0.0274396,85.6797,0.749549,-0.151601
-1.45651,1.09473,0.0249217,85.6817,0.785412,0.0933845
-1.45676,1.09022,0.0266651,85.8098,0.751822,-0.257472
-1.45643,1.07518,0.0262638,86.2749,0.968167,0.129998
-1.46032,1.03451,0.0235876,87.0498,1.29806,0.0709557
-1.45755,0.967429,0.0227679,87.5428,1.48772,0.430685
-1.46259,0.87673,0.0238126,88.2237,1.46117,0.15736
-1.47028,0.773579,0.0270293,88.6834,1.30696,0.51292
-1.47854,0.681549,0.0296658,89.1902,1.19422,0.540176
-1.47554,0.600938,0.0269547,89.5089,1.3456,0.276236
-1.48312,0.520691,0.029643,90.0169,1.2813,0.504987
-1.48231,0.441018,0.0324142,90.5654,1.22009,0.633587
-1.4837,0.359678,0.0341192,90.8615,1.09973,0.539125
-1.48086,0.285179,0.0364345,91.234,1.02037,0.684539
-1.47539,0.21107,0.0357518,91.4334,1.04162,0.698533
-1.47395,0.135103,0.0399532,91.6321,0.84445,0.641597
-1.47128,0.0579806,0.0434131,91.9833,0.923186,0.695857
-1.46379,-0.0185968,0.0394338,92.2103,1.14421,0.222642
-1.4662,-0.0969893,0.0416047,92.4581,0.943946,0.553764
-1.46283,-0.167149,0.046678,92.5314,0.885696,0.720989
-1.46102,-0.235108,0.047052,92.7931,0.828683,0.690896
-1.44932,-0.307072,0.041215,92.9708,1.02175,0.196671
-1.45366,-0.380059,0.0412496,93.2284,0.936249,0.691937
-1.44747,-0.459825,0.0429889,93.6089,1.01734,0.884459
-1.44123,-0.551665,0.0384154,93.8465,1.11669,0.215608
-1.43526,-0.63888,0.0438271,94.0701,0.931068,0.893093
-1.428,-0.715256,0.0394834,94.1662,1.12862,0.238956
-1.42445,-0.786308,0.0464856,94.3239,1.0077,0.867565
-1.41472,-0.862464,0.0435252,94.3954,1.21594,0.16412
-1.41213,-0.940327,0.051509,94.4256,1.04639,0.965608
-1.41433,-1.01993,0.0569492,94.4686,0.982895,0.93411
-1.40757,-1.09442,0.0617911,94.4597,1.04892,1.20551
-1.40578,-1.16771,0.0648035,94.432,0.995661,1.15646
-1.39901,-1.23212,0.0653696,94.5099,1.13978,1.22149
-1.39315,-1.30511,0.0595961,94.4435,1.35063,0.456248
-1.38748,-1.37361,0.0616456,94.373,1.21999,1.09355
-1.37852,-1.45073,0.0532504,94.2997,1.40764,0.244805
-1.37642,-1.52099,0.0590818,94.107,1.16751,1.15931
-1.37268,-1.59936,0.0641514,93.7611,1.16979,1.15346
-1.36874,-1.67788,0.0674753,93.4378,1.09541,1.18941
-1.36764,-1.75509,0.0720559,93.0983,1.04326,1.21701
-1.3646,-1.82495,0.074534,92.6592,1.04092,1.18047
-1.35597,-1.89443,0.066246,92.2952,1.29802,0.587609
-1.36168,-1.96597,0.072317,91.8568,0.98974,1.19064
-1.36004,-2.0376,0.0740147,91.4707,0.952613,1.32069
-1.35868,-2.11036,0.0652765,91.0917,1.23551,0.332347
-1.35475,-2.17739,0.0713492,90.6456,1.10216,1.23979
-1.3601,-2.25201,0.072657,90.2551,1.04881,1.14708
-1.35754,-2.33015,0.0794707,89.9115,1.03897,1.24679
-1.35633,-2.40717,0.0730882,89.5546,1.30898,0.347519
-1.35929,-2.48208,0.0804634,89.1529,1.0984,1.13533
-1.36423,-2.55759,0.0852868,88.7336,1.09222,1.14832
-1.36662,-2.63466,0.0880468,88.3507,1.0015,1.13808
-1.36908,-2.70777,0.0897973,87.9874,1.07907,1.15696
-1.36915,-2.78903,0.0830956,87.6533,1.25191,0.372626
-1.3738,-2.86914,0.088268,87.3049,1.05455,1.0361
-1.3793,-2.95118,0.0893525,86.9223,1.08131,1.06735
-1.38484,-3.03726,0.0913794,86.4406,1.03702,1.02488
-1.39291,-3.11665,0.0933221,86.0941,1.05714,1.07362
-1.39956,-3.19189,0.094112,85.6468,1.1593,0.989667
-1.40117,-3.27192,0.0846498,85.4515,1.38091,0.0711107
-1.41117,-3.34908,0.0878186,84.9009,1.30067,0.648086
-1.4151,-3.43013,0.0924038,84.5155,1.30791,0.772431
-1.42243,-3.50667,0.0935987,84.1387,1.29539,0.607104
-1.42887,-3.58029,0.092217,83.7333,1.27818,0.466854
-1.43732,-3.66056,0.0819887,83.3315,1.48341,0.103548
-1.44575,-3.73319,0.0829492,82.9172,1.41846,0.253568
-1.45252,-3.79931,0.0857525,82.5696,1.39725,0.159578
-1.46055,-3.86635,0.0882309,82.1845,1.43205,0.154313
-1.47228,-3.9378,0.0905972,81.806,1.38123,0.00475156
-1.48121,-4.01634,0.0935146,81.4481,1.36904,0.00124492
-1.49757,-4.09553,0.0956152,80.9929,1.34105,0.0707459
-1.50978,-4.17027,0.0947955,80.5893,1.32109,0.0238821
-1.51952,-4.24472,0.0931292,80.1887,1.35559,-0.182247
-1.53333,-4.319,0.0918936,79.8297,1.41948,-0.301878
-1.54519,-4.38274,0.0958407,79.5098,1.37725,0.00318087
-1.56472,-4.45073,0.0960234,79.2354,1.30071,-0.0413716
-1.57675,-4.5208,0.0981719,79.0054,1.24728,0.0810274
-1.60057,-4.58722,0.0901618,78.8274,1.30807,-0.0123323
-1.6125,-4.64872,0.0921238,78.484,1.26399,0.510158
-1.63057,-4.70765,0.0964991,78.2296,1.22586,0.288717
-1.64103,-4.76944,0.100465,77.9702,1.10972,0.479489
-1.65724,-4.83335,0.103232,77.6922,1.07951,0.214803
-1.66607,-4.90642,0.0936814,77.4726,1.27287,-0.046901
-1.68359,-4.98119,0.0943755,77.1321,1.12041,0.0255954
-1.69115,-5.05966,0.0957036,76.9526,0.991807,-0.321705
-1.71352,-5.13251,0.0869829,76.7439,1.19052,-0.0424477
-1.73076,-5.19609,0.0869726,76.5813,1.10997,-0.066031
-1.74626,-5.26062,0.0787306,76.4122,1.23726,-0.0701671
-1.76091,-5.32491,0.0863339,76.4094,1.14643,0.0631667
-1.7811,-5.38981,0.0900576,76.4225,1.17595,0.0489496
-1.80205,-5.46143,0.094558,76.5466,1.21059,0.345526
-1.82221,-5.54255,0.0901117,76.5513,1.3108,0.182464
-1.84396,-5.62976,0.0982688,76.502,1.16337,-0.029017
-1.8655,-5.72395,0.105525,76.4168,1.13685,0.136476
-1.88667,-5.80938,0.107801,76.3068,1.13211,0.212359
-1.91023,-5.89903,0.103862,76.3072,1.17156,0.239083
-1.93154,-5.98137,0.107763,76.3335,1.05249,0.0880675
-1.9542,-6.06713,0.112523,76.1407,1.05902,0.373794
-1.97594,-6.14791,0.112635,76.2569,0.965584,0.555269
-1.9947,-6.22325,0.1144,76.0509,0.955361,0.339893
-2.01487,-6.29519,0.115227,76.0773,0.905246,0.233841
-2.03041,-6.37094,0.113963,75.8901,0.943509,0.263266
-2.0511,-6.4437,0.11209,75.8546,0.906086,0.41654
-2.06935,-6.51571,0.112616,75.9032,0.869254,0.205939
-2.08846,-6.58937,0.112059,75.7245,0.890866,0.29761
-2.10802,-6.65832,0.110144,75.6958,0.919277,0.145951
-2.11875,-6.72918,0.101825,75.6905,1.10795,0.369411
-2.13905,-6.79092,0.102727,75.5689,0.991031,0.0962147
-2.15583,-6.85367,0.105146,75.5919,0.945382,0.266007
-2.17807,-6.92097,0.108863,75.5139,0.989908,0.216017
-2.19779,-7.00195,0.113183,75.5515,0.940275,0.342295
-2.22063,-7.08245,0.113866,75.3373,1.0792,0.613771
-2.24378,-7.16691,0.107719,75.3994,1.05814,0.412436
-2.26313,-7.24872,0.108405,75.3109,0.990596,0.149156
-2.28455,-7.32508,0.109438,75.29,0.938863,-0.0908454
-2.30601,-7.39964,0.113775,75.3141,0.850474,0.305934
-2.32515,-7.47632,0.117368,75.3028,0.837416,0.218711
-2.3457,-7.55392,0.121293,75.26,0.785843,0.306986
-2.36762,-7.62962,0.121979,75.2413,1.08989,0.690802
-2.3894,-7.70392,0.116896,75.3159,1.06962,0.405042
-2.40654,-7.77903,0.11485,75.3034,1.08855,0.410197
-2.43045,-7.84662,0.121134,75.2839,1.1107,0.294321
-2.43808,-7.90884,0.123602,75.2155,1.11595,0.249598
-2.45668,-7.97017,0.123504,75.2952,1.23754,0.309364
-2.47011,-8.03054,0.126586,75.3849,1.21215,0.507947
-2.49294,-8.09365,0.126214,75.3071,1.31292,0.469636
-2.50859,-8.16064,0.128534,75.2656,1.32547,0.516254
-2.53252,-8.22651,0.121451,75.4096,1.27433,0.177179
-2.54426,-8.29884,0.12422,75.3214,1.16498,0.39278
-2.56671,-8.36369,0.124239,75.2,1.11885,0.200179
-2.58087,-8.42119,0.125705,75.2608,1.09678,0.286275
-2.59684,-8.47961,0.123076,75.3244,1.18933,0.358821
-2.61152,-8.54358,0.124402,75.2218,1.02448,0.144728
-2.62718,-8.60063,0.127351,75.1811,1.02332,0.166148
-2.63855,-8.65355,0.129119,75.0176,0.95408,0.231079
-2.65601,-8.70937,0.127089,74.7931,1.03346,0.0708584
-2.66947,-8.76493,0.128073,74.5673,0.910949,0.241768
-2.69103,-8.81495,0.129942,74.4865,0.871434,0.147201
-2.70399,-8.86312,0.134349,74.5254,0.876113,0.404543
-2.72006,-8.90908,0.134731,74.4625,0.971264,0.48545
-2.73501,-8.95807,0.125571,74.4917,1.10413,0.381807
-2.74239,-8.99856,0.128717,74.506,0.99597,0.278294
-2.75166,-9.03962,0.129656,74.6557,1.08263,0.503115
-2.76263,-9.08004,0.133224,74.7302,0.875278,0.184605
-2.77268,-9.12505,0.140235,74.698,0.888178,0.36667
-2.78387,-9.16592,0.14259,74.5691,0.916927,0.455853
-2.79917,-9.20457,0.142929,74.2624,0.921018,0.433064
-2.81258,-9.24606,0.144244,74.1241,0.951583,0.599143
-2.82372,-9.28261,0.143057,73.9928,0.86323,0.586049
-2.83486,-9.31811,0.133308,74.0031,1.03632,0.444487
-2.84649,-9.34609,0.135709,73.9362,0.946243,0.574109
-2.85748,-9.3785,0.139967,73.9294,0.851814,0.453893
-2.86515,-9.40546,0.140943,73.91,0.942102,0.611256
-2.86813,-9.42744,0.140088,74.0393,0.898254,0.468908
-2.87645,-9.45608,0.143257,74.1146,0.88936,0.578628
-2.88679,-9.48826,0.143247,74.2407,0.827945,0.436826
-2.89482,-9.52454,0.134952,74.4781,0.991383,0.482573
-2.90194,-9.55767,0.13928,74.7276,0.881043,0.51143
-2.91121,-9.59519,0.131862,74.9981,0.903741,0.221951
-2.92137,-9.62676,0.137813,74.9588,0.859542,0.31612
-2.92929,-9.6575,0.136593,74.8063,0.882273,0.149018
-2.93624,-9.68931,0.137007,74.6361,0.880532,0.220124
-2.94379,-9.71634,0.141475,74.5029,0.829691,0.238747
-2.95019,-9.74151,0.143317,74.7057,0.826142,0.228977
-2.95997,-9.76551,0.145555,74.8302,0.864181,0.342316
-2.96335,-9.78921,0.143545,75.0919,0.841,0.1877
-2.97344,-9.81471,0.141761,75.1729,0.881285,0.396302
-2.98029,-9.83998,0.140981,74.9531,0.887985,0.123355
-2.9904,-9.87324,0.139862,74.7927,0.938495,0.304664
-3.00018,-9.90201,0.142263,74.5042,0.960117,0.297005
-3.0079,-9.93088,0.131735,74.6892,1.02901,0.1438
-3.01155,-9.94641,0.137182,74.7197,0.957443,0.220494
-3.01411,-9.9682,0.138855,74.9141,0.978886,0.116673
-3.01957,-9.99246,0.139301,75.1072,0.966969,0.0669058
-3.02847,-10.0189,0.132825,75.4086,1.06846,0.261892
-3.03502,-10.0447,0.13639,75.6734,0.999883,0.220999
-3.0415,-10.0667,0.142116,75.9205,1.01116,0.174992
-3.04816,-10.0889,0.141864,76.1745,1.10368,0.405177
-3.04986,-10.1054,0.145466,76.3744,1.00627,0.340574
-3.05099,-10.1196,0.149179,76.6462,1.00697,0.278047
-3.05499,-10.1336,0.1504,76.8727,1.13681,0.408451
-3.05696,-10.1492,0.148607,77.1416,1.14682,0.278396
-3.05853,-10.1682,0.146773,77.5092,1.14088,0.342173
-3.06349,-10.187,0.14622,77.7396,1.15582,0.360871
-3.06568,-10.2033,0.136226,78.0401,1.21742,0.12479
-3.06764,-10.2182,0.134063,78.3171,1.13698,0.0452819
-3.07078,-10.2314,0.133235,78.5179,1.20772,0.12561
-3.07525,-10.2355,0.133378,78.6814,1.10907,0.249691
-3.07883,-10.2463,0.125288,78.838,1.28115,0.109722
-3.08284,-10.2587,0.130405,79.1174,1.2201,0.235072
-3.08848,-10.2713,0.123661,79.5399,1.32696,0.187854
-3.08783,-10.2777,0.130962,79.7086,1.17228,0.148486
-3.0918,-10.2867,0.13878,79.9723,1.17187,0.264741
-3.09532,-10.2959,0.134545,80.2546,1.2616,0.416093
-3.09405,-10.3077,0.135757,80.4021,1.1305,0.0799561
-3.09231,-10.3193,0.139548,80.6255,1.13213,0.216217
-3.095,-10.3289,0.143049,80.5977,1.13273,0.152197
-3.09855,-10.336,0.143479,80.7418,1.14172,0.348477
-3.09667,-10.3408,0.142973,80.8373,1.09543,0.259267
-3.09758,-10.3484,0.140713,80.8886,1.15804,0.329907
-3.09888,-10.3576,0.141632,80.9943,1.07824,0.271343
-3.10117,-10.3696,0.135054,81.0801,1.2167,0.295919
-3.10137,-10.3803,0.138312,80.8984,1.13108,0.153551
-3.10421,-10.3903,0.14151,80.6893,1.15718,0.228197
-3.10795,-10.4015,0.142877,80.3692,1.16752,0.373646
-3.10784,-10.4023,0.141639,79.7265,1.10324,0.11856
-3.10547,-10.3974,0.132156,78.5399,1.2463,0.0829993
-3.1065,-10.3954,0.137965,76.0742,1.03077,0.0288396
-3.10254,-10.3931,0.143974,73.9261,1.09791,0.286794
-3.10323,-10.3947,0.14508,72.2012,1.02403,-0.073293
-3.10657,-10.3939,0.150134,70.6385,1.08339,0.109901
-3.10839,-10.3938,0.154585,68.9495,1.03216,0.092041
-3.11,-10.395,0.145354,67.118,1.24519,0.174188
-3.11001,-10.3913,0.151321,65.459,0.982975,-0.0241592
-3.10428,-10.3936,0.152701,63.8281,0.850923,-0.171156
-3.10826,-10.3927,0.15685,62.0822,0.917653,0.044425
-3.10628,-10.3912,0.162397,60.4856,0.834752,-0.1409
-3.10653,-10.3924,0.163284,58.7123,0.811589,-0.242469
-3.10902,-10.3891,0.166868,57.0765,0.818956,-0.0396433
-3.11113,-10.39,0.155199,55.4686,1.10062,-0.0144885
-3.10989,-10.3881,0.16275,53.6693,0.794549,-0.0484763
-3.10845,-10.3881,0.167998,51.943,0.643328,-0.284187
-3.10583,-10.3838,0.169363,50.3488,0.584726,-0.267983
-3.10795,-10.3829,0.170139,48.6569,0.670446,-0.0828674
-3.10785,-10.3806,0.169913,46.898,0.562929,-0.214739
-3.10783,-10.3793,0.168615,45.1311,0.494035,-0.213207
-3.1069,-10.3789,0.168243,43.4706,0.469355,-0.366566
-3.10807,-10.3854,0.155077,41.8107,0.829682,-0.215453
-3.10617,-10.3867,0.157791,40.1941,0.340629,-0.357562
-3.10757,-10.3897,0.160844,38.51,0.330203,-0.226828
-3.11181,-10.3947,0.149196,36.8784,0.961437,-0.129534
-3.11214,-10.3924,0.15679,35.1237,0.367676,-0.175476
-3.11672,-10.3973,0.1448,33.5424,0.857323,-0.233602
-3.11317,-10.3964,0.15458,31.7994,0.145033,-0.435801
-3.11006,-10.4039,0.163551,30.2144,0.216581,-0.242332
-3.11063,-10.4042,0.15363,28.4617,0.544957,-0.381639
-3.11039,-10.3997,0.159861,26.6717,0.178117,-0.278476
-3.11093,-10.3933,0.165121,24.9648,0.24967,-0.181824
-3.11386,-10.3894,0.167044,23.3377,0.242228,-0.209044
-3.11679,-10.3827,0.168447,21.6234,0.415626,-0.165448
-3.12113,-10.3795,0.166431,19.8399,0.433378,-0.169144
-3.12268,-10.3704,0.164976,18.2025,0.301554,-0.151659
-3.11801,-10.3666,0.160645,16.4917,0.151416,-0.129193
-3.11999,-10.3632,0.159481,14.7679,0.525517,-0.0275005
-3.11971,-10.3655,0.155491,13.1556,0.480479,-0.00987536
-3.11991,-10.3633,0.151573,11.5227,0.575154,-0.0148994
-3.12447,-10.3709,0.137392,10.2402,1.02986,-0.460952
-3.12087,-10.3737,0.140617,10.522,0.412422,-0.0521407
-3.11794,-10.3767,0.145419,10.4924,0.491704,0.0036173
-3.11894,-10.3881,0.152966,10.5533,0.616172,0.0227454
-3.12155,-10.3964,0.158651,10.5891,0.854695,0.113346
-3.12672,-10.4018,0.148715,10.5593,1.05322,-0.358101
-3.12457,-10.3999,0.152806,10.65,0.630431,-0.012949
-3.12213,-10.4043,0.159381,10.6347,0.598934,-0.0577818
-3.12451,-10.406,0.149219,10.5733,1.01067,-0.270032
-3.12101,-10.4026,0.150885,10.4701,0.274647,-0.180895
-3.13004,-10.4056,0.138726,10.5843,1.13649,-0.388392
-3.13115,-10.3896,0.150488,10.5198,1.05414,0.121018
-3.12224,-10.377,0.151424,10.4188,0.312037,-0.0141959
-3.12122,-10.3682,0.153003,10.4512,0.628661,0.122404
-3.11953,-10.3661,0.156406,10.4718,0.644241,0.0793164
-3.12133,-10.3642,0.158053,10.5452,0.939891,0.183959
-3.12028,-10.367,0.144929,10.5828,0.631835,-0.432428
-3.12462,-10.3682,0.150564,10.436,0.808697,0.153736
-3.12297,-10.3701,0.153469,10.4705,0.741145,0.0345247
-3.12629,-10.3754,0.140822,10.5825,0.995676,-0.451269
-3.12855,-10.3745,0.145934,10.4938,0.768265,0.105032
-3.12508,-10.3772,0.149402,10.4394,0.461611,-0.0300368
-3.11952,-10.3777,0.149779,10.4111,0.188086,-0.170883
-3.11961,-10.3824,0.154115,10.54,0.639969,0.056968
-3.12103,-10.39,0.157974,10.5182,0.622489,0.0687953
-3.12208,-10.3951,0.16115,10.5273,0.514303,0.0220208
-3.12003,-10.3954,0.160184,10.4882,0.419807,-0.01755
-3.12232,-10.3979,0.15996,10.5175,0.624045,0.0571515
-3.12274,-10.3986,0.159249,10.5174,0.550727,0.0748237
-3.12378,-10.3985,0.144736,10.5266,0.695105,-0.431201
-3.12291,-10.3929,0.150522,10.5225,0.493981,-0.0444364
-3.1159,-10.3872,0.150722,10.4674,0.0431331,-0.0815113
-3.1188,-10.3823,0.153538,10.4905,0.522357,0.0871463
-3.12086,-10.3768,0.155661,10.4388,0.48557,0.0788042
-3.11738,-10.3718,0.155975,10.4647,0.199732,-0.0354191
-3.11799,-10.3714,0.157133,10.4352,0.539003,-0.021954
-3.11605,-10.3683,0.156226,10.3655,0.500256,0.100113
-3.11635,-10.368,0.158236,10.4513,0.466734,-0.0980761
-3.11638,-10.3656,0.145028,10.4364,0.767411,-0.36831
-3.11848,-10.3614,0.146943,10.4041,0.465679,-0.0792433
-3.1185,-10.3603,0.150352,10.36,0.625662,0.0109818
-3.11777,-10.3624,0.153783,10.4766,0.628202,0.0440948
-3.12155,-10.3677,0.154095,10.5112,0.813989,0.107333
-3.12145,-10.3704,0.156315,10.4587,0.530951,0.0380277
-3.12082,-10.3741,0.160936,10.5226,0.702844,0.0341308
-3.1211,-10.3743,0.164723,10.4341,0.696772,0.0657435
-3.12236,-10.3799,0.151361,10.4699,0.702742,-0.417066
-3.11667,-10.3816,0.152621,10.5184,0.51538,-0.0186653
-3.11711,-10.3803,0.153834,10.6281,0.568807,0.0671993
-3.12146,-10.386,0.157134,12.0113,0.836422,0.0785693
-3.12728,-10.3942,0.158291,14.1857,0.776222,0.146625
-3.12276,-10.3916,0.157291,16.7664,0.337296,-0.0208747
-3.12331,-10.3919,0.144274,19.7222,0.762457,-0.375779
-3.11566,-10.3853,0.152271,22.8196,0.227118,-0.330085
-3.11357,-10.38,0.156412,26.674,0.159814,-0.424182
-3.10697,-10.3773,0.158452,30.2087,0.223384,-0.409236
-3.10912,-10.3768,0.163471,30.7117,0.403704,-0.174232
-3.10946,-10.376,0.166187,29.3199,0.274236,-0.21405
-3.11595,-10.3792,0.157005,26.8832,0.635458,-0.299392
-3.11591,-10.3749,0.158092,22.6151,0.123359,-0.272948
-3.11546,-10.3697,0.158178,16.631,0.112426,-0.299405
-3.1138,-10.3624,0.157045,11.0661,0.495284,-0.0631379
-3.12469,-10.3586,0.155104,6.01237,0.793196,0.131992
-3.13472,-10.3571,0.136924,0.462375,1.12835,-0.528047
-3.13368,-10.3555,0.131615,174.665,179.44,-179.776
-3.13237,-10.3455,0.124132,168.684,179.263,-179.786
-3.12621,-10.3422,0.110687,162.271,179.33,-179.91
-3.11712,-10.3393,0.0969875,155.848,179.65,-179.924
-3.10678,-10.3347,0.0837635,149.434,-179.875,-179.724
-3.09863,-10.3351,0.0784208,143.079,-179.746,-179.635
-3.09561,-10.3345,0.0779352,136.707,-179.555,-179.444
-3.09826,-10.3369,0.0829624,129.963,-179.511,-179.503
-3.09868,-10.3356,0.086467,122.997,179.885,-179.9
-3.09763,-10.3426,0.103205,115.542,-179.484,-179.445
-3.09683,-10.351,0.114122,108.283,-179.289,-179.127
-3.0994,-10.3555,0.121701,101.452,-179.977,179.892
-3.09575,-10.364,0.134662,93.9928,-179.397,-179.274
-3.09192,-10.3773,0.143967,87.6102,-179.368,-178.919
-3.09435,-10.3912,0.150949,83.0122,-179.406,-178.946
-3.09289,-10.4077,0.157121,80.6724,-179.219,-179.061
-3.10731,-10.4418,0.155989,79.4064,-179.21,-178.723
-3.12306,-10.4858,0.156574,79.3928,-179.263,-178.649
-3.13082,-10.5303,0.159049,79.3804,-179.308,-178.726
-3.14064,-10.5696,0.157745,79.4198,-179.253,-178.752
-3.14973,-10.6074,0.15721,79.4322,-179.491,-178.708
-3.15194,-10.6178,0.15623,79.4617,-179.542,-178.737
-3.14572,-10.6017,0.15385,79.3871,-179.456,-178.649
-3.14172,-10.5869,0.151363,79.334,-179.475,-178.596
-3.13721,-10.5699,0.149229,79.3429,-179.533,-178.693
-3.12855,-10.5214,0.142379,79.691,-179.979,-179.924
-3.11527,-10.4607,0.149635,79.5503,-179.409,-178.957
-3.09464,-10.4022,0.151568,79.6281,-179.392,-178.948
-3.08818,-10.3631,0.150231,79.6079,-179.45,-178.641
-3.07986,-10.3225,0.14957,79.6827,-179.513,-178.837
-3.07423,-10.28,0.15214,79.7903,-179.477,-178.958
-3.06808,-10.2338,0.151018,79.7805,-179.498,-178.713
-3.06003,-10.1838,0.144671,80.0599,-179.867,179.8
-3.05141,-10.1463,0.150299,79.8699,-179.461,-179.052
-3.04443,-10.105,0.154866,80.0249,-179.54,-178.961
-3.03596,-10.0669,0.160798,80.2494,-179.537,-178.982
-3.02971,-10.0217,0.159827,80.4782,-179.657,-179.005
-3.02343,-9.9763,0.153374,80.898,179.96,179.836
-3.01493,-9.94526,0.149436,80.7912,-179.534,-178.878
-3.01477,-9.94388,0.14149,81.0206,179.99,179.901
-3.01857,-9.95311,0.1451,80.7113,-179.674,-178.79
-3.01399,-9.95165,0.143607,80.9396,-179.614,-178.607
-3.00928,-9.95282,0.143967,80.9586,-179.609,-178.531
-3.00993,-9.94726,0.146595,80.8924,-179.656,-178.586
-3.01127,-9.94581,0.14804,80.9747,-179.631,-178.944
-3.0154,-9.94408,0.148016,80.9861,-179.658,-178.703
-3.01722,-9.94318,0.150131,80.8914,-179.594,-178.663
-3.01671,-9.94359,0.150846,80.9001,-179.672,-178.61
-3.01497,-9.94186,0.150106,80.8648,-179.637,-178.711
-3.01625,-9.94338,0.150592,80.7688,-179.64,-178.728
-3.01848,-9.94078,0.143348,80.9958,-179.998,-179.932
-3.01824,-9.94658,0.145942,80.8404,-179.627,-178.861
-3.01863,-9.95044,0.14803,80.8551,-179.617,-178.862
-3.0223,-9.94915,0.139759,80.9725,179.915,179.674
-3.01598,-9.94835,0.144379,80.7217,-179.647,-178.721
-3.01463,-9.95209,0.146905,80.8449,-179.61,-178.805
-3.0119,-9.95211,0.147678,80.8668,-179.646,-178.672
-3.01103,-9.95248,0.149164,80.8372,-179.655,-178.732
-3.01066,-9.95444,0.150857,80.7903,-179.628,-178.762
-3.01432,-9.95388,0.151324,80.7968,-179.609,-178.828
-3.01402,-9.95471,0.151968,80.9178,-179.628,-178.902
-3.01312,-9.95245,0.150483,80.7761,-179.638,-178.682
-3.01697,-9.94923,0.14374,81.1217,179.944,179.92
-3.01478,-9.95143,0.145227,80.9154,-179.614,-178.8
-3.01487,-9.95307,0.144674,80.8328,-179.674,-178.755
-3.01635,-9.94858,0.137129,81.1886,179.884,179.912
-3.00914,-9.95172,0.141589,81.6634,-179.663,-178.626
-3.01358,-9.95549,0.147068,84.1175,-179.58,-178.901
-3.01591,-9.95552,0.147469,88.5606,-179.504,-178.971
-3.0205,-9.95163,0.141244,92.7491,179.919,179.925
-3.02031,-9.95088,0.141421,94.6843,-179.58,-179.262
-3.01895,-9.94874,0.138055,96.8734,-179.551,-179.147
-3.01832,-9.94673,0.132692,101.334,-179.59,-179.326
-3.01999,-9.9428,0.126667,106.563,-179.509,-179.167
-3.02183,-9.93991,0.120392,112.111,-179.552,-179.385
-3.01901,-9.9361,0.112714,119.663,-179.572,-179.442
-3.022,-9.93827,0.104456,128.844,-179.666,-179.592
-3.02449,-9.9401,0.0941149,137.814,-179.604,-179.563
-3.03007,-9.94223,0.0874081,146.448,179.334,179.943
-3.03549,-9.94365,0.077812,154.475,179.833,-179.62
-3.04126,-9.93991,0.0838061,162.656,179.557,-179.762
-3.04546,-9.93646,0.095032,170.687,179.624,-179.51
-3.04998,-9.93958,0.100125,178.799,179.383,179.773
-3.03883,-9.93228,0.128388,6.04895,0.0916293,0.383226
-3.041,-9.93568,0.155557,13.6263,0.449522,0.40171
-3.02869,-9.941,0.174326,21.3208,0.332954,0.224819
-3.01064,-9.93881,0.186663,29.2025,0.250473,0.104125
-2.99668,-9.93483,0.190868,36.839,0.273665,-0.0632688
-2.97969,-9.9339,0.188702,42.4049,0.287711,-0.0902098
-2.96788,-9.93381,0.18606,44.9659,0.278457,-0.1343
-2.94256,-9.93755,0.181594,43.4282,0.163673,0.154786
-2.92177,-9.90951,0.179239,45.1022,0.225563,0.0030205
-2.88739,-9.87473,0.177195,46.1207,0.371914,0.0470557
-2.85443,-9.83497,0.172625,49.1796,0.495999,0.124821
-2.8233,-9.80441,0.172092,53.4035,0.447652,0.134828
-2.80054,-9.77335,0.172561,59.2582,0.412578,0.174981
-2.77913,-9.73682,0.171373,66.4798,0.619148,0.265443
-2.76372,-9.70256,0.169432,72.7516,0.634845,0.398618
-2.75573,-9.67499,0.164602,76.3767,0.656372,0.296167
-2.75225,-9.66156,0.148027,78.171,0.9611,0.553683
-2.75441,-9.66658,0.149643,77.7281,0.769751,0.290504
-2.75278,-9.67918,0.151183,77.1701,0.663365,0.14456
-2.74955,-9.67608,0.153388,77.4756,0.676142,0.0846344
-2.74742,-9.66115,0.153168,77.6034,0.549765,0.116377
-2.73835,-9.62386,0.138453,77.8399,0.816879,0.250775
-2.72995,-9.56846,0.143388,77.7235,0.718201,0.362518
-2.71654,-9.5268,0.148474,77.6802,0.66821,0.132547
-2.70859,-9.48954,0.137513,77.6812,0.841752,-0.0319661
-2.69824,-9.45133,0.146483,77.6193,0.664762,0.132708
-2.69184,-9.41168,0.152023,77.5936,0.668494,0.152442
-2.68073,-9.36609,0.141534,77.575,0.87801,0.0559799
-2.67198,-9.31881,0.145968,77.5946,0.742126,0.212424
-2.65916,-9.26477,0.149997,77.4852,0.759831,0.263502
-2.64715,-9.2127,0.158031,77.5476,0.659848,0.46849
-2.63263,-9.16559,0.147989,77.3742,0.871831,0.511565
-2.63076,-9.11804,0.153311,77.4285,0.757699,0.554123
-2.62188,-9.07038,0.144384,77.4891,0.854743,0.73472
-2.605,-9.00278,0.149447,77.4022,0.635263,0.43649
-2.58427,-8.91363,0.149204,77.2681,0.596648,0.409174
-2.55824,-8.80687,0.138241,77.2447,0.788739,0.335123
-2.52486,-8.68112,0.140318,77.079,0.732525,0.223312
-2.49579,-8.55474,0.142591,77.0061,0.773737,0.375471
-2.4656,-8.43539,0.130105,76.9411,1.09633,0.390188
-2.43756,-8.30998,0.140635,76.8554,0.90105,0.407386
-2.40292,-8.17148,0.140881,76.845,1.14085,0.383764
-2.36907,-8.03229,0.144256,76.7684,0.957062,0.388971
-2.33269,-7.877,0.148076,76.7016,0.844797,0.339982
-2.29543,-7.72174,0.145479,76.6525,0.850543,0.511765
-2.25841,-7.57047,0.133202,76.5244,0.956003,0.472966
-2.22219,-7.41746,0.135411,76.5308,0.633952,0.475725
-2.18781,-7.25848,0.13936,76.5418,0.729884,0.44005
-2.14474,-7.10373,0.139321,76.5749,0.737199,0.399619
-2.1012,-6.95193,0.137203,76.5552,0.733981,0.42429
-2.06344,-6.80494,0.135065,76.4953,0.770337,0.279027
-2.02441,-6.65371,0.123632,76.4962,0.937144,0.581969
-1.99219,-6.50759,0.128634,76.499,0.774797,0.393677
-1.9511,-6.35893,0.116685,76.5553,0.937521,0.228969
-1.91447,-6.20804,0.125497,76.4034,0.78568,0.23242
-1.87638,-6.05913,0.11411,76.3851,1.14738,0.524893
-1.83895,-5.89821,0.123276,76.4929,0.931621,0.254608
-1.80136,-5.74527,0.122614,76.4311,1.09106,0.178911
-1.76529,-5.5938,0.120892,76.451,1.08577,0.279116
-1.7289,-5.44203,0.12252,76.4067,0.992919,0.334627
-1.69238,-5.29408,0.123734,76.3978,0.84337,0.194576
-1.65616,-5.14135,0.122321,76.3025,0.904285,0.611741
-1.61828,-4.99138,0.109114,76.5536,1.03443,0.220232
-1.57599,-4.83645,0.109451,76.4397,0.984343,0.252115
-1.53938,-4.67716,0.109514,76.5015,1.18243,0.179961
-1.50284,-4.52218,0.108343,76.3887,1.22172,0.547072
-1.46321,-4.36978,0.106482,76.3606,1.19822,0.385172
-1.42457,-4.22352,0.105328,76.3945,1.17925,0.429485
-1.387,-4.07409,0.104307,76.3578,1.21666,0.302033
-1.35109,-3.91622,0.105352,76.3297,1.20133,0.335985
-1.31469,-3.75883,0.108121,76.3198,1.27717,0.540324
-1.27666,-3.60423,0.109243,76.2079,1.27613,0.72804
-1.23674,-3.45305,0.0958432,76.383,1.37652,0.169146
-1.20285,-3.30122,0.0987071,76.2748,1.2465,0.840089
-1.16411,-3.15133,0.0847869,76.3375,1.43259,0.327591
-1.13616,-3.00732,0.091423,76.4053,1.2672,0.914105
-1.10558,-2.89023,0.0774544,77.2241,1.49021,0.424863
-1.08086,-2.77431,0.0851391,78.7104,1.13137,0.965684
-1.06027,-2.66653,0.0860679,80.4255,1.12845,0.896104
-1.0423,-2.57773,0.0844752,82.1914,1.11389,1.11283
-1.02616,-2.50232,0.0743082,83.9741,1.30944,0.44638
-1.02609,-2.41836,0.0742056,85.6936,1.0843,1.00312
-1.02157,-2.33131,0.0759922,87.6756,0.981001,1.14427
-1.01835,-2.24854,0.0766103,89.7398,1.00264,1.19617
-1.00884,-2.16676,0.0654148,92.012,1.38273,0.171322
-1.01658,-2.08716,0.0649569,94.2548,0.94263,1.19202
-1.02455,-2.01092,0.0645415,95.8517,0.90665,1.21723
-1.02754,-1.93176,0.0650444,96.9835,0.908919,1.41477
-1.04159,-1.85374,0.0646343,97.826,0.89512,1.18159
-1.05156,-1.77501,0.0630959,98.0976,0.879307,1.23562
-1.06574,-1.69747,0.0622658,98.3741,0.911356,1.13783
-1.07337,-1.62017,0.061095,98.4283,0.960841,1.18666
-1.07771,-1.56086,0.0518518,98.5294,1.43716,0.375452
-1.08555,-1.5132,0.0557774,98.5017,1.04504,0.982745
-1.09446,-1.46206,0.0574551,98.9959,0.957662,1.03151
-1.0999,-1.40483,0.0588671,99.7046,0.950075,1.07604
-1.1148,-1.34108,0.0583279,101.117,0.899014,1.03415
-1.12096,-1.28259,0.0603945,102.561,0.91663,1.05203
-1.1322,-1.23291,0.0591842,103.757,0.757017,1.16916
-1.14543,-1.18463,0.0575582,104.68,0.713203,1.03082
-1.15584,-1.1294,0.0557449,105.194,0.682698,1.01445
-1.16845,-1.07304,0.0471501,105.446,1.11378,0.23119
-1.18286,-1.01054,0.0496384,105.569,0.719296,0.997087
-1.20754,-0.927671,0.0507211,105.704,0.7192,0.999136
-1.2346,-0.842761,0.0527501,105.645,0.71758,0.935327
-1.25103,-0.765697,0.0446502,105.626,1.12759,0.352816
-1.26938,-0.7107,0.0474075,105.511,0.739413,0.988324
-1.28684,-0.658775,0.0481529,105.335,0.662768,1.04161
-1.30734,-0.597912,0.0492213,104.216,0.709977,0.942869
-1.32421,-0.533805,0.0429277,102.409,0.995297,0.112696
-1.33772,-0.462956,0.0448688,100.302,0.70593,0.704931
-1.34517,-0.394457,0.0466786,98.2793,0.735496,0.875977
-1.34996,-0.335416,0.0397851,96.8251,1.0373,0.148026
-1.36031,-0.273978,0.0440435,95.5944,0.757292,0.816404
-1.37122,-0.20907,0.0426271,94.2563,0.821268,0.77536
-1.36734,-0.145957,0.0359541,92.6791,0.978501,0.0819644
-1.3747,-0.0811154,0.0365099,90.553,0.986612,0.577286
-1.37435,-0.0197992,0.0381262,88.6071,0.98696,0.642269
-1.37668,0.0403521,0.0403975,87.0259,0.987456,0.488963
-1.374,0.0884471,0.0387629,85.623,1.03677,0.618963
-1.36994,0.137985,0.0379727,84.5791,0.952069,0.675538
-1.36063,0.193332,0.0328645,83.332,1.018,0.0117239
-1.35399,0.251475,0.0331204,81.8802,1.15414,0.563262
-1.34744,0.301385,0.0303274,80.5084,1.19299,0.355257
-1.33955,0.337489,0.0309046,80.2398,1.19024,0.355263
-1.33751,0.362774,0.0323345,80.1546,1.13894,0.324913
-1.3382,0.361657,0.0344998,80.0824,1.14646,0.404731
-1.34024,0.347602,0.0350016,80.1318,1.11888,0.379272
-1.34253,0.348177,0.0345855,80.3622,1.22164,0.425372
-1.34418,0.350222,0.0354347,80.3971,1.11358,0.391085
-1.34588,0.354123,0.0360189,80.342,1.12463,0.391278
-1.33995,0.350341,0.0318462,80.4109,1.12169,-0.0778722
-1.3403,0.353447,0.032526,80.4196,1.14353,0.315953
-1.34268,0.356079,0.034045,80.3685,1.13988,0.373401
-1.34088,0.35593,0.0333549,80.3309,1.16754,0.374861
-1.33656,0.350801,0.0300018,80.3326,1.18133,-0.113845
-1.33863,0.3495,0.032573,80.3457,1.07487,0.264966
-1.34048,0.348894,0.0335998,80.3149,1.2003,0.359204
-1.34405,0.350595,0.0346138,80.3953,1.21625,0.46567
-1.34597,0.351914,0.0361737,80.3436,1.16791,0.441313
-1.3455,0.351374,0.0361978,80.2981,1.22335,0.410204
-1.33741,0.345732,0.0305353,80.3324,1.22267,0.0226264
-1.33816,0.346656,0.0281762,80.332,1.30884,0.387834
-1.33607,0.343339,0.0263763,80.3732,1.13993,-0.0698676
-1.33741,0.348796,0.0302566,80.3205,1.14163,0.312822
-1.33894,0.351471,0.0326332,80.2526,1.15226,0.279285
-1.34295,0.355033,0.0332669,80.2511,1.18821,0.429404
-1.34676,0.357636,0.0343248,80.2623,1.15056,0.368718
-1.35061,0.357327,0.0353872,80.3086,1.18929,0.458512
-1.34625,0.353303,0.0314068,80.3246,1.16611,-0.00222396
-1.3462,0.351739,0.0312323,80.288,1.19109,0.395411
-1.34577,0.354826,0.0331405,80.2224,1.12623,0.404405
-1.33975,0.352015,0.0305967,80.2568,1.13197,-0.0548024
-1.33818,0.350571,0.031755,80.2701,1.11515,0.297846
-1.33876,0.347852,0.0321347,80.2111,1.17636,0.406564
-1.3402,0.346905,0.0319084,80.1765,1.2242,0.504442
-1.33685,0.34443,0.0311885,80.1817,1.10306,-0.0922429
-1.33916,0.345161,0.0312997,80.2277,1.23433,0.359923
-1.34003,0.34864,0.0319021,80.1989,1.16291,0.288235
-1.34188,0.351442,0.0316075,80.214,1.2065,0.391988
-1.34217,0.353187,0.0340045,80.0641,1.09793,0.342523
-1.34355,0.353866,0.0345434,80.1569,1.13623,0.402363
-1.34658,0.354213,0.0351327,80.19,1.21364,0.462395
-1.34174,0.350159,0.0329768,80.1336,1.11748,-0.090886
-1.34175,0.348356,0.0354342,80.0667,1.13056,0.38084
-1.34324,0.348306,0.0351407,80.0977,1.17242,0.453548
-1.33771,0.344928,0.0312724,80.1073,1.1889,-0.0835949
-1.3402,0.344517,0.033744,80.2135,1.12317,0.380037
-1.33552,0.339854,0.0316163,80.1503,1.16301,-0.0827994
-1.33607,0.339391,0.0316144,80.0245,1.28864,0.418527
-1.33728,0.341126,0.0338065,80.0469,1.21071,0.356167
-1.34134,0.34298,0.036464,80.0803,1.13228,0.425743
-1.34291,0.345384,0.0358974,79.9601,1.22317,0.447459
-1.34058,0.351348,0.0345411,79.8895,1.13904,0.39291
-1.33611,0.368043,0.0307298,79.919,1.13204,-0.0687734
-1.33554,0.395053,0.0314882,79.9378,1.13382,0.232717
-1.33089,0.414985,0.0300635,79.8297,1.20651,0.340732
-1.32609,0.435095,0.0289112,79.8673,1.21612,0.291914
-1.32067,0.467661,0.0307102,79.8523,1.16334,0.335116
-1.31673,0.509172,0.0295249,79.6912,1.13641,0.219887
-1.30358,0.568406,0.0283137,79.7516,1.21185,0.24998
-1.28568,0.631105,0.0290794,79.6467,1.19688,0.341691
-1.2731,0.684533,0.0257374,79.6186,1.41027,0.409551
-1.26119,0.731436,0.0250257,79.5803,1.37865,0.382941
-1.25143,0.778379,0.0266655,79.6263,1.27826,-0.131777
-1.24265,0.831493,0.0281862,79.5283,1.24259,0.283268
-1.23212,0.875771,0.0280748,79.5258,1.17482,-0.197469
-1.22728,0.920651,0.0281388,79.5044,1.27495,0.179443
-1.21894,0.960767,0.0265722,79.5224,1.37055,0.280424
-1.21251,0.987741,0.0271296,79.4402,1.2077,0.263996
-1.20994,1.01041,0.0275297,79.4467,0.965941,0.183609
-1.20543,1.03815,0.0291625,79.4891,0.789913,0.198239
-1.20125,1.06585,0.0311305,79.4133,0.454436,-0.14542
-1.20267,1.0977,0.0306609,79.2822,0.582396,0.192429
-1.2163,1.12337,0.0322537,79.4745,0.292731,-0.247825
-1.21177,1.14282,0.0308711,79.4643,0.471234,0.0741461
-1.21091,1.16269,0.0315569,79.5376,0.0725344,-0.0199916
-1.20189,1.19439,0.0343719,79.3829,-0.146863,0.0264142
-1.19638,1.22074,0.0336058,79.3509,-0.196871,-0.0350133
-1.19038,1.24789,0.0357714,79.3808,-0.57611,-0.00951659
-1.18605,1.28038,0.0364406,79.3689,-0.701438,-0.007075
-1.175,1.32552,0.0382733,79.2608,-1.00833,0.0840687
-1.16567,1.3753,0.0394684,79.3478,-0.795643,0.190106
-1.15552,1.42469,0.0413553,79.338,-1.00384,0.0222088
-1.14785,1.46378,0.0477845,79.2268,-1.29993,0.381494
-1.14182,1.49512,0.0472324,79.2125,-1.20587,0.337532
-1.13207,1.53023,0.0486039,79.2387,-1.52802,0.241972
-1.13194,1.54927,0.0496431,79.1928,-2.37603,-0.0795083
-1.12393,1.59782,0.048062,79.2521,-2.25971,-0.147204
-1.11161,1.6523,0.0461702,79.2267,-2.19722,-0.14291
-1.09815,1.70591,0.0458028,79.1959,-1.83927,-0.0544076
-1.0891,1.7478,0.0449253,79.1317,-1.66458,-0.0561811
-1.08238,1.79169,0.0457467,79.1041,-1.41652,-0.136033
-1.07395,1.8358,0.0499679,79.0438,-1.16696,-0.0456681
-1.06265,1.86983,0.0471863,79.024,-0.602478,0.0985598
-1.05808,1.90066,0.0464992,78.9661,-0.508867,0.114921
-1.05045,1.93953,0.046458,78.9351,-0.220873,-0.0351475
-1.03362,1.98503,0.0452829,78.903,0.183874,0.260546
-1.02498,2.03039,0.0445812,78.9634,0.257551,0.0795915
-1.02067,2.06605,0.0428874,78.946,0.128979,-0.039346
-1.01178,2.10194,0.0436977,78.9176,-0.0384818,0.148916
-1.00598,2.14658,0.0455389,78.8481,0.283763,0.0941967
-1.00043,2.19485,0.0385772,78.8956,0.525961,0.18806
-0.984705,2.24353,0.0359544,78.9269,0.823985,0.214126
-0.980128,2.28495,0.0341932,78.8049,1.4358,0.12199
-0.974311,2.31352,0.0351871,78.8011,1.34602,0.0295367
-0.961411,2.34155,0.0366046,78.7458,1.40419,0.371808
-0.956916,2.36647,0.0414518,78.7802,1.27488,-0.0383821
-0.945066,2.3879,0.0402069,78.7334,1.35526,0.345627
-0.943231,2.40837,0.0392527,78.7815,1.33427,0.123794
-0.942558,2.4267,0.0381365,78.7362,1.29727,0.27981
-0.942582,2.45817,0.0383226,78.7016,1.12786,0.113269
-0.934069,2.51045,0.0381577,78.7175,1.1943,0.254564
-0.918375,2.56729,0.039359,78.6919,1.19838,0.321973
-0.91366,2.62537,0.0401316,78.6026,1.20329,0.10025
-0.906701,2.6669,0.0352419,78.6609,1.26343,0.161885
-0.896973,2.6949,0.0317537,78.627,1.44015,0.558373
-0.900226,2.69745,0.0318463,78.6063,1.40243,0.380387
-0.905153,2.68452,0.0331806,78.5644,1.32929,0.298084
-0.912032,2.68562,0.0327623,78.5055,1.38507,0.327078
-0.911671,2.68671,0.031374,78.3791,1.36064,0.610932
-0.91549,2.68697,0.0302704,78.3639,1.36795,0.256323
-0.921005,2.6901,0.0305539,78.3999,1.30042,0.303382
-0.921615,2.69104,0.0337373,78.383,1.2832,0.238051
-0.920592,2.6947,0.0417214,78.3533,1.16915,0.184644
-0.916121,2.69187,0.0460316,78.3786,1.18728,0.123964
-0.910411,2.6865,0.0505945,78.2941,1.2039,0.346652
-0.903427,2.68359,0.0550743,78.2503,1.10247,0.196077
-0.901804,2.6777,0.0509613,78.2375,1.22281,0.222753
-0.893157,2.67447,0.0537189,78.1883,1.05359,-0.00905694
-0.890622,2.66615,0.0473559,78.1359,1.25867,0.179966
-0.88728,2.66782,0.0440825,78.1176,1.20226,0.127941
-0.884974,2.66736,0.04125,78.1153,1.24205,0.386446
-0.884136,2.66813,0.0412986,78.148,1.15821,-0.00153893
-0.881234,2.66873,0.0433837,78.058,1.2077,0.017791
-0.885409,2.66851,0.0401765,78.0096,1.28542,0.192556
-0.886595,2.67033,0.0393581,78.0194,1.27058,0.230993
-0.887177,2.66889,0.0412952,78.038,1.21101,0.209612
-0.88707,2.66838,0.0429816,77.9894,1.18809,0.135411
-0.891671,2.67267,0.0432931,78.0609,1.24698,0.131004
-0.89251,2.67376,0.0430981,78.0351,1.26425,0.285278
-0.893826,2.67438,0.0462808,77.966,1.16579,0.205058
-0.897047,2.67211,0.0449909,78.0413,1.24542,0.0465905
-0.898927,2.6748,0.0454175,78.0307,1.21428,0.100225
-0.901161,2.67731,0.046896,78.0396,1.1394,-0.00255623
-0.902012,2.67974,0.0486944,78.042,1.10232,0.0809097
-0.904227,2.67976,0.050575,78.0867,1.12547,0.0301815
-0.904995,2.67657,0.0498226,78.0498,1.14824,0.019035
-0.903919,2.67697,0.0488064,77.942,1.17811,0.177768
-0.906866,2.67357,0.04489,78.0209,1.25348,0.191318
-0.907765,2.67688,0.049822,78.0297,1.08318,-0.0534392
-0.908174,2.67623,0.0464679,77.9787,1.26008,0.16944
-0.909048,2.67383,0.042487,77.9858,1.26766,0.169506
-0.910559,2.67315,0.040702,78.0255,1.2721,0.279948
-0.911037,2.67377,0.0395617,77.9864,1.28719,0.274861
-0.90835,2.67451,0.0429698,77.9477,1.20582,0.0737125
-0.908693,2.67637,0.0409446,77.9149,1.27902,0.229044
-0.909701,2.67917,0.0390376,77.9374,1.29726,0.196276
-0.907045,2.67835,0.039622,77.8841,1.25034,0.112544
-0.906109,2.67748,0.0378223,77.8769,1.24186,0.0924316
-0.906411,2.67598,0.0405815,77.8659,1.25978,0.155546
-0.903611,2.67227,0.0406548,77.8788,1.24707,-0.00205415
-0.903365,2.66721,0.0365993,77.867,1.2723,0.168016
-0.908537,2.66999,0.037112,77.8392,1.25475,0.157113
-0.913479,2.67404,0.0358902,77.8727,1.33305,0.323876
-0.914116,2.67472,0.0352383,77.8814,1.33457,0.261137
-0.913729,2.67249,0.0297179,77.8092,1.37258,0.363034
-0.910556,2.67433,0.03147,77.8828,1.16534,0.389333
-0.909105,2.66787,0.0328206,78.3614,1.17062,0.46333
-0.910439,2.66611,0.0383984,78.8698,1.2946,0.0116109
-0.912723,2.65857,0.0368398,79.3538,1.18052,0.150593
-0.911927,2.66184,0.0368033,79.1474,1.1965,0.335961
-0.911674,2.65946,0.0349114,79.4361,1.11913,0.486913
-0.915334,2.66386,0.0339791,79.5691,1.16669,0.832315
-0.924802,2.66676,0.0322209,79.9379,0.851954,1.16156
-0.93346,2.67032,0.0239677,80.5786,1.13627,1.33454
-0.938461,2.67265,0.0231037,80.8714,0.931768,1.80927
-0.949649,2.68128,0.0176147,81.1584,0.295141,2.83145
-0.946699,2.6819,0.0218281,81.2834,0.292468,2.83649
-0.95208,2.68229,0.0216226,81.8486,-0.0190037,3.73956
-0.958344,2.67917,0.0280801,82.6208,-0.196581,4.57166
-0.959738,2.6764,0.0236922,82.9999,-0.83038,5.10826
-0.95011,2.66281,0.0202573,83.7249,-0.994387,6.98553
-0.942617,2.64919,0.0219095,84.2783,-0.962164,6.26119
-0.921119,2.6374,0.0249465,83.9433,-0.73154,5.37564
-0.900054,2.62877,0.0225013,84.3049,-1.78604,4.76082
-0.869468,2.61814,0.0250753,84.546,-2.21458,3.91353
-0.836274,2.60911,0.0288663,84.9978,-3.19986,3.16263
-0.807071,2.59375,0.0287964,86.6358,-3.74799,2.95792
-0.766341,2.56684,0.0205636,86.9975,-4.8448,1.66854
-0.727573,2.53592,0.0260801,87.2699,-4.72821,1.10076
-0.690042,2.49621,0.0327788,87.7093,-5.97813,0.286725
-0.660577,2.44179,0.030355,88.4674,-6.36723,-0.71678
-0.645937,2.36758,0.0391985,88.8716,-7.7224,-1.74058
-0.623927,2.2713,0.0522009,87.972,-8.8485,-0.946536
-0.610341,2.15291,0.05432,88.3006,-9.28164,-0.886286
-0.61083,2.03918,0.0437724,88.551,-9.48243,-0.796771
-0.616214,1.91256,0.0326052,89.2614,-8.49009,0.0521781
-0.612017,1.75797,0.0190164,90.2918,-8.43548,-0.893409
-0.606934,1.60199,-0.00506502,90.498,-8.50689,-0.0117192
-0.621226,1.42171,-0.0193933,90.8707,-8.76295,0.354225
-0.621211,1.21954,-0.0366513,92.1552,-9.67629,1.28099
-0.618562,1.01136,-0.0489159,92.6169,-10.4839,2.63506
-0.593336,0.778719,-0.0604977,93.0001,-10.2791,3.44605
-0.570354,0.52158,-0.0736992,92.4834,-9.14978,5.77303
-0.554394,0.269896,-0.10169,93.8013,-8.07537,5.85794
-0.508917,-0.00742905,-0.129028,94.0125,-6.61417,6.51699
-0.454854,-0.289931,-0.15526,94.6146,-5.91561,6.94627
-0.379433,-0.584343,-0.187353,94.7751,-4.91873,6.34509
-0.308225,-0.88269,-0.212897,94.1076,-4.61758,7.66804
-0.22833,-1.19814,-0.262613,92.9023,-4.00508,7.36814
-0.13414,-1.52254,-0.308895,92.9034,-2.94438,6.72781
-0.0502056,-1.84428,-0.343911,93.0489,-2.47068,6.6141
0.057495,-2.17945,-0.387336,93.7086,-0.892995,6.24091
0.174233,-2.50973,-0.438161,94.7946,-0.0912518,6.17344
0.310612,-2.84029,-0.489969,94.7302,0.436295,7.10861
0.443823,-3.17341,-0.553349,94.1819,-0.785112,5.96321
0.595425,-3.49993,-0.625418,96.2093,-0.342353,5.27663
0.746527,-3.827,-0.684447,97.808,0.575398,4.44823
0.896073,-4.15867,-0.756123,97.0625,0.761307,5.59591
1.05733,-4.50529,-0.848332,97.5564,1.6093,4.12607
1.22278,-4.83328,-0.951351,97.8753,2.03904,4.42191
1.40665,-5.16824,-1.04906,96.5779,1.55077,5.36021
1.59,-5.491,-1.14634,96.0669,2.65146,4.44049
1.76868,-5.80327,-1.24823,96.1651,3.55258,3.85402
1.95552,-6.11672,-1.3592,96.3641,3.71916,3.89281
2.14617,-6.42494,-1.47602,96.5655,3.88216,3.93798
2.34079,-6.72815,-1.59882,96.7655,4.04384,3.97929
2.54066,-7.02723,-1.72831,96.9685,4.20978,4.0259
2.74224,-7.31728,-1.86234,97.1623,4.37458,4.06661
2.94863,-7.60167,-2.00216,97.3626,4.53607,4.1198
3.16045,-7.88177,-2.14826,97.5626,4.70123,4.16752
3.37381,-8.15138,-2.29701,97.7559,4.86249,4.22323
3.59285,-8.41578,-2.45075,97.9516,5.02379,4.26352
3.81606,-8.67229,-2.60773,98.1568,5.18479,4.31462
4.04308,-8.92062,-2.76748,98.3598,5.34801,4.36438
4.27659,-9.1628,-2.93075,98.5716,5.51159,4.42284
4.5118,-9.39301,-3.09376,98.7717,5.67724,4.48248
4.75123,-9.61463,-3.25839,98.9821,5.83791,4.5343
4.99572,-9.82756,-3.42473,99.1876,5.99571,4.58195
5.24602,-10.0317,-3.5936,99.3979,6.16042,4.64371
5.49805,-10.2241,-3.76202,99.5993,6.32194,4.70631
5.75612,-10.4073,-3.93274,99.7918,6.48346,4.76838
6.01859,-10.5799,-4.10495,100.002,6.64623,4.82379
6.28643,-10.7422,-4.27919,100.207,6.80868,4.88389
6.55625,-10.8921,-4.45335,100.415,6.96973,4.93687
6.83362,-11.0319,-4.63086,100.625,7.13191,4.99655
7.11239,-11.1585,-4.80799,100.829,7.29368,5.05469
7.3971,-11.2738,-4.98743,101.033,7.45595,5.11563
7.68499,-11.3762,-5.16777,101.235,7.61685,5.17606
7.97922,-11.4663,-5.35099,101.445,7.78062,5.23324
8.27709,-11.5434,-5.53537,101.654,7.94219,5.2911
8.57784,-11.6068,-5.72051,101.868,8.10086,5.35008
8.88467,-11.6571,-5.90855,102.071,8.26175,5.41652
9.19556,-11.6934,-6.09805,102.281,8.42521,5.47255
9.51229,-11.7156,-6.29034,102.493,8.58772,5.53186
9.8316,-11.7231,-6.48348,102.7,8.74968,5.59569
10.1583,-11.7159,-6.68033,102.905,8.91041,5.66828
10.4827,-11.6938,-6.87505,103.115,9.07048,5.72865
10.8154,-11.6564,-7.07433,103.325,9.23134,5.7852
